30.607073068618774,85.04698657989502,33.690977739095686,23.88224315673113,3.9027868434786797
31.107436180114746,84.98559153079987,33.691025860607624,23.88235415905714,4.3054169267416
31.264568328857422,84.89005517959595,33.691217045784,23.882450198233126,4.882059007883072
31.71746826171875,85.73309993743896,33.69058966636658,23.88194422096014,4.014157190918922
32.19521617889404,85.68853449821472,33.690712291598324,23.882095157802105,4.511209078133106
32.30074739456177,85.61353206634521,33.69098837137222,23.882232086360453,5.157239906489849
36.098745822906494,86.93726444244385,33.69114738211036,23.88214221894741,4.601775541901588
36.41290998458862,86.90227913856506,33.6913673889637,23.8823770570755,5.324428029358387
36.209128856658936,86.84455871582031,33.69166081592441,23.882526370286943,6.111277177929878
35.76949214935303,87.98477506637573,33.693342825174334,23.883319849967958,5.406663216650486
36.16155958175659,87.84764409065247,33.693461904525755,23.88353441774845,5.964290112257004
36.06488561630249,87.71071696281433,33.693633608818054,23.883631944656372,6.6262364983558655
37.88925266265869,88.89627480506897,33.69559924155474,23.884531072974205,7.426628455519676
37.75395488739014,88.54318881034851,33.695536861419676,23.884717172682286,8.206799238920212
37.29289150238037,88.26214981079102,33.69554922372103,23.884744586646555,9.06782454252243
37.751248836517334,88.92171931266785,33.69743637502194,23.88559347450733,11.140664502978325
37.60717487335205,88.52606558799744,33.69753239005804,23.88590596079826,10.525496512651443
37.04083061218262,88.22623038291931,33.697606325149536,23.885982239246367,10.476117715239525
34.219730854034424,86.589200258255,33.69788976490498,23.886433057785034,6.775948688387871
34.24019908905029,86.57551312446594,33.69834919780493,23.886813879609107,5.967716634273529
33.80179977416992,86.53900504112244,33.69865713685751,23.88698018372059,5.579826630651951
37.45839214324951,85.22422337532043,33.69783609390259,23.886525295376778,5.188261330127716
36.91065168380737,85.18017721176147,33.698107474446296,23.886765732169152,5.6859002858400345
35.818077087402344,85.098060131073,33.69833720028401,23.886845817565916,6.329263657331467
35.1653037071228,84.99192404747009,33.69739245921374,23.88609919786453,6.067310072481632
34.97107124328613,84.92200994491577,33.69754541486502,23.886289784908293,6.551726743578911
34.14213752746582,84.80959641933441,33.697684964835645,23.8863366574049,7.279094889760017
34.77999305725098,85.14739418029785,33.69709016889334,23.88592233121395,5.505347050726414
34.748836517333984,85.07199478149414,33.697209186553955,23.88609536409378,5.883309863507748
34.08189392089844,84.95008194446564,33.697343967556954,23.886143532991408,6.5125876143574715
28.06179976463318,84.71935224533081,33.696894244253635,23.885896962881088,4.366956524550915
28.32218623161316,84.62048637866974,33.696938766241075,23.88601645886898,4.364196866750717
28.43324875831604,84.47518825531006,33.69695084959269,23.886020110249518,4.625697158277035
23.68347144126892,85.08784770965576,33.697200775146484,23.886141494512557,3.2372348979115486
23.941101789474487,85.03544306755066,33.69717094898224,23.886166750192643,3.3797780461609364
24.32813024520874,84.95640087127686,33.69710210740566,23.88611363887787,3.6128911785781384
24.649258613586426,85.31277418136597,33.69732219070196,23.886209298968314,3.43368374183774
24.961527347564697,85.29572463035583,33.697288861572744,23.88621540904045,3.7736533991992474
25.27771806716919,85.27070927619934,33.69729802668095,23.88618894100189,4.158255517482758
24.03106427192688,85.28872013092041,33.6972994697094,23.886217978596687,3.6399508118629456
24.385902643203735,85.32087659835815,33.697300027608875,23.88624018728733,3.885592207312584
24.7918758392334,85.35482120513916,33.697339445352554,23.886236884593963,4.118443489074707
31.15373945236206,85.98960995674133,33.69766404360533,23.886413479447363,3.6410184986889362
31.28785228729248,86.04339361190796,33.69783600538969,23.886574984192848,3.913987748324871
31.185401439666748,86.08718585968018,33.69813920766115,23.88671185731888,4.186560533940792
31.038838386535645,86.74381065368652,33.69775162577629,23.88632938325405,3.5387175381183624
31.431373119354248,86.78944969177246,33.697959531843665,23.88651586830616,3.837204486131668
31.57161569595337,86.81808924674988,33.698243489265444,23.886637445688248,4.190713599324226
36.2131724357605,87.27624344825745,33.69774104982615,23.886252350211144,3.925742529332638
36.178706645965576,87.24865388870239,33.69790521979332,23.88644308030605,4.416264243423939
35.78356599807739,87.21592164039612,33.69813579052687,23.886533098816873,4.91495194286108
35.74837779998779,88.2200140953064,33.697754694223406,23.886084458231924,3.9656819626688957
36.04310607910156,88.06107711791992,33.697823822796344,23.886267651319503,4.417644910514355
35.92855787277222,87.91776919364929,33.69795458853245,23.886329479813575,4.9265551790595055
31.330376625061035,88.58533382415771,33.69760510474443,23.885956298708916,3.6604043319821358
31.772194862365723,88.39100527763367,33.697799521982674,23.886193075180053,3.9371948912739754
32.08429431915283,88.21171569824219,33.698030725717544,23.886311076283455,4.357618749141693
25.40876841545105,88.67843508720398,33.69764705985784,23.886043869256973,3.1909277327358723
25.804011583328247,88.52817845344543,33.697964668273926,23.886288931965826,3.366712838411331
26.32891035079956,88.38684749603271,33.69828878641129,23.886444591283798,3.6389892399311066
24.37283492088318,88.74771547317505,33.699143689572814,23.887106011509896,2.889765113592148
24.766119480133057,88.61715340614319,33.69948921978474,23.887357665300367,2.987064592540264
25.25000309944153,88.49845385551453,33.69986773043871,23.88754627108574,3.1290780045092106
23.972142696380615,88.80034971237183,33.700348771214486,23.88795974612236,2.5755490213632584
24.34390163421631,88.68115735054016,33.700740172564984,23.888234699368475,2.6540780663490295
24.81036877632141,88.57611274719238,33.70117875933647,23.888458651304244,2.7501873150467873
24.050572872161865,89.05209755897522,33.70121262490749,23.888469346165657,2.5326494351029396
24.378957509994507,88.89432573318481,33.701578218042854,23.88874485373497,2.6435037925839424
24.820374011993408,88.76492524147034,33.70201674044132,23.88897319018841,2.765680927783251
24.328624963760376,89.19066262245178,33.701580020487306,23.888681693077086,2.537131406366825
24.605196475982666,89.00166988372803,33.70196052134037,23.888978456258773,2.646520271897316
25.008673429489136,88.84950351715088,33.70240870505572,23.88921714246273,2.7689158394932747
20.944164752960205,85.26731538772583,33.701413428485395,23.889243406653403,2.682454328984022
21.4158616065979,85.29636478424072,33.701778528094295,23.889406329393385,2.8733015470206738
22.007120609283447,85.35513949394226,33.70194284558296,23.889440996050833,3.059100177139044
20.31550621986389,83.43715155124664,33.702318448722366,23.88985788822174,3.3928273282945156
20.715023636817932,83.4635648727417,33.70209661662579,23.889740963578223,3.461676951497793
21.199087858200073,83.52784633636475,33.70182624995709,23.88957480967045,3.468854710459709
21.14720320701599,83.28963792324066,33.70269031018019,23.890252763032912,2.430881228297949
21.40587544441223,83.350430727005,33.702575763762,23.89022834956646,2.3353706151247025
21.773375034332275,83.40829277038574,33.70248158603907,23.890174848437308,2.286421390250325
20.292483925819397,82.85641717910767,33.70246054947376,23.89030052423477,1.9962001722306015
20.586104154586792,82.95246136188507,33.70240232676268,23.89028148949146,1.9584795124828818
21.038933753967285,83.03290295600891,33.70232809126377,23.89021884024143,1.9649302251636984
19.551319241523743,82.34349656105042,33.70208329409361,23.890054084658622,2.58060884103179
19.922585248947144,82.46726298332214,33.702017518281934,23.889986060261727,2.683991067111492
20.44342017173767,82.58899986743927,33.70186128765344,23.889841501712798,2.828618962317705
18.17061221599579,81.67046612501144,33.70155680596829,23.890067502856255,2.7825159803032875
18.752885222434998,81.87362486124039,33.701537531614306,23.889997273683548,2.7360529117286205
19.466354608535767,82.08911514282227,33.701426608860494,23.88984626173973,2.758192367851734
18.409048676490784,81.5677096247673,33.70152262657881,23.889891122579574,6.6333027780056
19.117569088935852,81.70236420631409,33.70134397000074,23.889668422341348,7.608910709619522
20.045206904411316,81.8641248345375,33.70099781483412,23.889363961219786,8.031482011079788
20.030869007110596,81.86732739210129,33.70185036033392,23.88988559901714,15.00962561368942
21.522347688674927,81.97949379682541,33.70135399878025,23.889567517638206,14.489069193601607
22.65549397468567,82.11154806613922,33.70088574677706,23.88922424674034,14.081389516592024
17.67892277240753,81.43851888179779,33.7015224146843,23.890260207057,8.135384753346443
18.49493658542633,81.50991213321686,33.70067098766565,23.889783567786218,7.273924261331558
19.11039626598358,81.61253076791763,33.69987662196159,23.889287942051887,6.664073079824448
18.57129430770874,81.09654688835144,33.70079906046391,23.89044823527336,2.992804352194071
18.728983163833618,81.21149241924286,33.70026154577732,23.890115720033645,2.7580349557101727
18.993668913841248,81.35823231935501,33.69980304628611,23.88975430846214,2.6584901325404644
17.58966064453125,80.96720683574677,33.700593166053295,23.890436725020407,2.3342842366546392
17.920626163482666,81.07850134372711,33.70016036748886,23.8901420378685,2.2573091126978397
18.409722208976746,81.22624975442886,33.69975446343422,23.88979512274265,2.259873891249299
17.67156159877777,81.18280780315399,33.7012251535058,23.890777585506438,1.8704148791730406
18.226285338401794,81.33535575866699,33.70108737915754,23.8906247228384,1.841871313750744
18.99114465713501,81.52222365140915,33.700976182818415,23.89042925953865,1.8695089630782606
16.81180691719055,81.17308729887009,33.70149840086699,23.890899141430854,1.7597301714122298
17.585164070129395,81.34597265720367,33.70139187961817,23.890748238563535,1.743829030543566
18.619290351867676,81.55075252056122,33.70130982011557,23.890564423203468,1.7785819936543705
16.9330153465271,81.1697034239769,33.70193800151348,23.891187943816185,1.7820686977356675
17.775896549224854,81.33160692453384,33.70178395956755,23.891008287668228,1.772761767730117
18.88199484348297,81.52426981925964,33.70167701989412,23.890809882879257,1.8147079125046732
17.347978711128235,80.74167186021805,33.70138916522264,23.891081867814062,1.901257432997227
18.246512174606323,80.84471106529236,33.701038466393946,23.89082123219967,1.8969258330762389
19.379443287849426,80.9889150261879,33.700799039006235,23.890560348033905,1.9497594833374026
18.609729766845703,80.86556488275528,33.70224909752607,23.891569731235503,2.3011251762509346
19.482001423835754,80.9318100810051,33.70188319861889,23.891305043697358,2.365547478199005
20.501623511314392,81.0269426703453,33.70161402821541,23.89103309094906,2.5160666778683662
18.034396529197693,81.2008073925972,33.70245648592711,23.891470857858657,2.341822249814868
18.92267382144928,81.2917006611824,33.70225406765938,23.891281855106353,2.414953600615263
19.97177517414093,81.40666711330414,33.702069832086565,23.891054248213766,2.5745695121586323
18.253558039665222,81.81936413049698,33.70281282812357,23.89128194630146,2.462155617773533
19.068004846572876,81.94766759872437,33.70276504188776,23.891169261336326,2.5602569095790386
20.02063548564911,82.07291316986084,33.70264329910278,23.890989619493485,2.738057192414999
19.79532217979431,82.51378178596497,33.702828875780106,23.890922578573225,2.268565421923995
20.366875290870667,82.64760291576385,33.70290138930083,23.8909119284153,2.286147302016616
21.052778720855713,82.74752807617188,33.70288352310658,23.89083086669445,2.3697514217346907
21.14945149421692,83.25070297718048,33.7030161985755,23.890663398504255,2.336963092908263
21.585687160491943,83.31509959697723,33.70299393355847,23.89064468383789,2.415096092969179
22.11567974090576,83.34468114376068,33.7029369956255,23.890574422478675,2.550043560564518
21.56477427482605,83.99357080459595,33.70309976279736,23.890430629253387,2.4294791035354137
21.92427134513855,84.01480460166931,33.70301856160164,23.890406891703606,2.508497651666403
22.376413106918335,84.00860369205475,33.70294707536697,23.890347684621812,2.630268767476082
25.966654777526855,84.84313404560089,33.70309716641903,23.89019777059555,2.784289423376322
26.39498209953308,84.82690846920013,33.70306503891945,23.8902206748724,3.009638734161854
26.73809027671814,84.78956174850464,33.703132558166985,23.89022695660591,3.3054109513759613
28.072227001190186,85.65459203720093,33.7029133117199,23.889889014363288,3.171308044344187
28.469923496246338,85.6549961566925,33.702982107698915,23.88996758878231,3.4801630713045597
28.685991525650024,85.64180254936218,33.70311429768801,23.88999068260193,3.889663465321064
25.85448956489563,84.28998744487762,33.70260866910219,23.889824986457825,3.6895631290972233
26.21100878715515,84.25198233127594,33.70269673675299,23.889912837743758,4.000734746456146
26.485061407089233,84.21276772022247,33.70275261521339,23.889915899038314,4.367364220321178
22.318119764328003,84.0770457983017,33.70273060768843,23.88993970096111,3.2305575385689735
22.601786613464355,84.06311011314392,33.70271800130606,23.88997570335865,3.2895919531583786
22.967175006866455,84.04414296150208,33.70264274924993,23.889927974343298,3.3816607892513275
21.993572473526,84.12094819545746,33.70279114246368,23.88998308300972,3.234852761030197
22.186811923980713,84.11945116519928,33.70270940750837,23.889971365332602,3.285412233322859
22.465471982955933,84.113614320755,33.702588595449924,23.889894003272055,3.352695781737566
20.915453791618347,83.96787881851196,33.704269683361055,23.891213759183884,2.46412855014205
21.132449865341187,83.98717105388641,33.70415297776461,23.89119032382965,2.3794429134577513
21.462675094604492,83.99758589267731,33.704035743772984,23.891125691533087,2.33422807790339
20.923823475837708,84.18590843677521,33.70687339752912,23.893023874759674,2.238594586029649
21.10480284690857,84.17821371555328,33.70677002519369,23.892987114191055,2.2559094186872244
21.412074327468872,84.16174066066742,33.70667461097241,23.892912318110465,2.3060399051755667
19.907958269119263,83.39596998691559,33.70823604017496,23.89418510854244,2.068284623324871
20.236322045326233,83.431116938591,33.70815574288368,23.894157079458235,2.047468753531575
20.687340259552002,83.46075212955475,33.70808569967747,23.894096254110337,2.064637992531061
29.624682426452637,83.2220469713211,33.7088198363781,23.894536249041558,2.894624438136816
29.54320764541626,83.24671149253845,33.708759800493716,23.894499057531355,3.1914169006049633
29.15385937690735,83.2490382194519,33.708922033905985,23.89450765132904,3.596676889806986
23.640894651412964,83.30517327785492,33.709270817637446,23.894736667275428,3.0137545838952065
23.772481441497803,83.32402563095093,33.709288893044,23.89476514160633,3.0879832096397877
23.91157841682434,83.32773530483246,33.709398327171805,23.894785603284834,3.253587990999222
22.456243991851807,83.29470872879028,33.709514587521554,23.894906467199323,3.2570703364908695
22.634570360183716,83.32889151573181,33.70953344881534,23.894937976002694,3.2610753774642944
22.85111403465271,83.35249888896942,33.709616361260416,23.894952227473258,3.3432156816124916
21.68751811981201,83.63709127902985,33.709713398218156,23.895135458111763,2.439606286585331
21.87062120437622,83.66453313827515,33.709726959466934,23.895180075764657,2.339421756565571
22.144659519195557,83.66331362724304,33.7097805339098,23.89519552528858,2.3215576577931643
20.400081038475037,84.10200321674347,33.70984057247639,23.895141328573228,2.1191410664469004
20.616756439208984,84.10510170459747,33.70980566084385,23.895145230293274,2.1074287816882133
20.978513717651367,84.08436071872711,33.709777232110504,23.895109828710556,2.142035396769643
18.849850058555603,83.40071678161621,33.709454135894774,23.894979823827743,2.1807545088231564
19.24716091156006,83.44539165496826,33.709411260783675,23.894957704544066,2.2011526245623827
19.784204721450806,83.48295152187347,33.70933911472559,23.89488633096218,2.259145839139819
18.276018857955933,82.77893030643463,33.70900314390659,23.894879618287085,2.1776816193014383
18.79421031475067,82.89880609512329,33.70902808845043,23.89487912118435,2.147066466510296
19.442806005477905,83.01073288917542,33.709009857475756,23.894824938774107,2.1648707184940577
25.95055079460144,83.69579696655273,33.70997676163912,23.895272159576415,2.955422405153513
25.96178150177002,83.69997012615204,33.70994983494282,23.895245174765588,3.161500211805105
25.843610525131226,83.6733740568161,33.710056825578214,23.895233637690545,3.473063264042139
29.426895141601562,84.21514523029327,33.712397417724134,23.896825825572012,3.6260284706950188
29.190085887908936,84.19547033309937,33.712186483442785,23.896724132299422,3.832575999200344
28.703417539596558,84.15189123153687,33.71226130098105,23.896694064736366,4.174611963331699
28.897348403930664,84.21037912368774,33.71404815107584,23.897959622144697,3.8811487928032875
28.596014738082886,84.17559516429901,33.713770394921305,23.897821091413498,4.096357174217701
28.08556294441223,84.12575900554657,33.71382617145777,23.89778093159199,4.458622358739376
34.3218789100647,84.47652435302734,33.71492899119854,23.898500173091886,4.525031842291355
33.09350824356079,84.4483597278595,33.71441763609648,23.89823154091835,4.659978471696377
31.67239999771118,84.38432502746582,33.71439633667469,23.898128415346147,4.998636864125729
33.1034836769104,84.34182631969452,33.71563979268074,23.898692571520805,8.578731775283813
31.75298547744751,84.2821729183197,33.7150074082613,23.898312456011773,9.682279735803604
30.42588210105896,84.24033904075623,33.714963369071484,23.89816749334335,10.7393349558115
32.93594932556152,84.55327880382538,33.716077808141705,23.898967732191085,11.635473057627676
31.660905838012695,84.48980808258057,33.71546539008617,23.89868800461292,10.438566118478775
30.288346767425537,84.4291079044342,33.71547754049301,23.898637470006943,9.933857530355453
26.227493047714233,84.6797446012497,33.716498936414716,23.89959890604019,6.2509478479623795
25.732002019882202,84.66549456119537,33.71618410408497,23.899491964578626,5.171019420027733
25.150620698928833,84.6296877861023,33.71621335089207,23.899494128227232,4.586243204772472
28.147141695022583,85.04131603240967,33.71597688734531,23.899445279836655,2.7896972596645355
27.562209129333496,84.96503865718842,33.715601088404654,23.89926937878132,2.731919292360544
26.879764556884766,84.85529160499573,33.715558505654336,23.89918978869915,2.797597035765648
20.902897477149963,83.53131353855133,33.71477669805288,23.898552073836324,3.8753766790032387
20.764986634254456,83.52892708778381,33.7146796181798,23.898498068451882,3.945973090827465
20.777718782424927,83.55324721336365,33.71470105975866,23.898464816212652,4.040258102118969
20.550829529762268,82.70579504966736,33.713880751729015,23.898354151844977,2.6882577911019325
20.684939980506897,82.81939661502838,33.713943257927895,23.89838741481304,2.56601594761014
20.91067945957184,82.93145787715912,33.714135448932645,23.898443891406057,2.542796567082405
21.679802894592285,82.4837213754654,33.713457944393156,23.898197462558745,2.6992409341037273
21.718204975128174,82.60096395015717,33.713665689527986,23.898280730843542,2.655869781970978
21.84081768989563,82.70594131946564,33.71400035411119,23.89838828384876,2.7220445722341537
26.071959495544434,82.71694695949554,33.71363491654396,23.898212863802907,3.5180739164352417
25.840649366378784,82.80372893810272,33.71379447579384,23.89826243817806,3.6413700357079506
25.504776000976562,82.86825394630432,33.71418542116881,23.898386579751968,3.8918581828475
27.109561920166016,82.98295056819916,33.714055779278276,23.898350200057028,4.07782344520092
26.863105058670044,83.0498538017273,33.714078382253646,23.898359158635138,4.1270453333854675
26.471917390823364,83.09662795066833,33.71441623598337,23.89847514271736,4.32657553255558
24.559787273406982,83.23362231254578,33.714493392407896,23.898549547195433,3.7684152126312256
24.42499852180481,83.2683265209198,33.71446195691824,23.898546383976935,3.7251764945685863
24.26840877532959,83.29087138175964,33.71469996541739,23.898626710772515,3.8362050279974937
24.95784616470337,83.58624017238617,33.71485506147146,23.898583251833916,4.635669611394405
24.701915740966797,83.58200335502625,33.714715978205206,23.898501548171044,4.844374306499958
24.436542749404907,83.57911658287048,33.71486669421196,23.898522319197653,5.136337116360664
24.477059602737427,83.38144493103027,33.714707789421084,23.89847326695919,5.754068627953529
24.225421905517578,83.41268622875214,33.7145975881815,23.89843345582485,5.475885666906834
23.94334650039673,83.44709074497223,33.714781866669654,23.89849817216396,5.342036731541157
26.27323842048645,83.94304513931274,33.714920190870764,23.89863511145115,4.601209931075573
25.858733415603638,83.96332585811615,33.71472484022379,23.898562856316566,4.272685259580612
25.356268644332886,83.96135175228119,33.714842889606956,23.898590799570083,4.153436258435249
27.611368656158447,84.25762283802032,33.715107309818265,23.89869269311428,4.4145184606313705
27.051076650619507,84.2438770532608,33.714818462729454,23.898544172048567,4.466678038239479
26.402913093566895,84.21726632118225,33.7148671528697,23.898504702448843,4.658045269548893
26.13767719268799,84.99078464508057,33.715411048531536,23.89870502769947,4.61528716981411
25.79623794555664,84.9839825630188,33.715122367739674,23.89856638431549,4.56980562210083
25.399219751358032,84.96433520317078,33.71510280907154,23.898500232100485,4.664599917829037
23.75503396987915,85.0880994796753,33.715471741557124,23.898759810924528,4.083920106291771
23.600315809249878,85.08499813079834,33.71527459383011,23.89866665959358,4.010667972266674
23.456141710281372,85.0735375881195,33.71523258507252,23.898598018288613,4.029528260231018
22.22493624687195,84.95616412162781,33.71664121687412,23.8997219568491,3.4974242597818375
22.1275315284729,84.9565349817276,33.716474254727366,23.89964383304119,3.3636760748922825
22.08522891998291,84.95005083084106,33.71642538487911,23.89958137691021,3.304504867643118
23.345138788223267,86.03602075576782,33.718665120601656,23.90104678750038,3.2676873579621315
23.226279973983765,86.06460881233215,33.71842887699604,23.900907938480376,3.2344918362796307
23.13821530342102,86.0846631526947,33.71834624350071,23.9007985830307,3.2718788124620914
27.042118072509766,86.80132508277893,33.71977206289768,23.901574335098267,4.755639120936394
26.613878965377808,86.82191157341003,33.71939057230949,23.901319814920424,5.103953801095486
26.142641067504883,86.85289859771729,33.71927549481392,23.901142896413802,5.536451958119869
27.7254638671875,87.96855735778809,33.72066701412201,23.901985031366348,5.7971485927701
27.367539167404175,87.95696449279785,33.72031281232834,23.901817965507508,5.350554756820202
26.901362895965576,87.95004796981812,33.72020433843136,23.901697480678557,5.168769046664238
26.68356156349182,87.61433267593384,33.72075714170933,23.902372088432312,4.116959556937218
26.3951358795166,87.64925289154053,33.72059645056724,23.902313215732573,3.6379019394516945
26.034618377685547,87.66691398620605,33.7205634111166,23.90224862098694,3.388818934559822
30.5345401763916,88.48909401893616,33.721049137711525,23.9024368083477,3.5494641438126564
29.85699152946472,88.35226559638977,33.720625375509265,23.90222911596298,3.587555702775717
29.07097315788269,88.24224066734314,33.72051678359509,23.902091768980025,3.74994820356369
34.25242280960083,88.86922311782837,33.72139665007591,23.902475053071974,5.059578329324722
33.14087724685669,88.62488961219788,33.72082736194134,23.902209056615828,5.322920627892017
31.910630226135254,88.44386553764343,33.720678756833074,23.902041103839874,5.793008603155613
32.763978004455566,88.8314483165741,33.72188603520393,23.90280466079712,6.274501666426659
31.90088129043579,88.61331748962402,33.721474316120144,23.902651649713516,5.929196760058403
30.88943099975586,88.44735312461853,33.72138118982315,23.902540663480757,6.001991242170334
38.0982551574707,89.25068831443787,33.72282462060451,23.90346991300583,6.1605721563100815
36.60213327407837,88.92811799049377,33.72202756464481,23.90312613606453,5.883609265089035
35.04653787612915,88.68759322166443,33.721757353544234,23.902915718555448,5.972070530056953
36.8476185798645,89.29612278938293,33.72355623602867,23.903991817235944,6.3344909474253654
35.62841749191284,88.9561116695404,33.72278904378414,23.90367117524147,6.075810328125954
34.18457841873169,88.69764184951782,33.722526798844335,23.903467302322387,6.2614376321434975
34.17833185195923,89.52519345283508,33.723744966983794,23.904019215106963,6.858033671975136
33.09134578704834,89.14357161521912,33.72313621819019,23.903818027973173,6.625614896416664
31.838024616241455,88.85059642791748,33.722982650995256,23.903694821596144,6.9359632432460785
36.436272621154785,89.37927198410034,33.72463365256786,23.904757537841796,8.142588496208191
35.024341106414795,89.0154070854187,33.723937635421755,23.90449153780937,7.389062777161598
33.47214317321777,88.74472856521606,33.723744392991065,23.90434002161026,7.330698579549789
32.74691915512085,89.11039447784424,33.727366372942924,23.90712055325508,5.2910174280405045
31.844178199768066,88.86921739578247,33.726858432292936,23.906918597221374,4.5507431626319885
30.713454246520996,88.67188334465027,33.726747104525565,23.90681884407997,4.3680203557014465
29.72269868850708,87.8636543750763,33.72838151931763,23.908254795074463,3.565306778997183
28.9476797580719,87.74748611450195,33.72799654185772,23.908021371364594,3.5828928500413895
28.036508321762085,87.6397156715393,33.72796868979931,23.90791601061821,3.8130153194069862
28.846838235855103,87.24140048027039,33.72843561410904,23.90825368285179,4.242843002080917
27.995232105255127,87.15710401535034,33.72805710613728,23.90801367521286,4.380293473601341
27.05533242225647,87.08011817932129,33.728071890473366,23.907930723428727,4.743548057973385
29.84645104408264,87.07048153877258,33.728172553777696,23.908114762306212,3.8484922274947166
29.014142513275146,87.00232410430908,33.72775688648224,23.907867852449417,3.8500257804989815
28.050535678863525,86.9301290512085,33.72776697695255,23.90779294371605,4.055800832808018
24.999950885772705,85.30998110771179,33.72762829601765,23.90791603922844,4.081942647695541
24.536213636398315,85.2066581249237,33.727394825816155,23.907783777713774,4.115021325647831
24.10310959815979,85.10854291915894,33.72755031347275,23.90782152533531,4.320759832859039
25.002065658569336,85.21588921546936,33.727389654517175,23.907790036201476,3.5961454771459103
24.552629947662354,85.13227009773254,33.72710205733776,23.90764190673828,3.492504920810461
24.11489224433899,85.03749585151672,33.72725286722183,23.90769009709358,3.554447688162327
23.871718406677246,85.01858377456665,33.727120918631556,23.907597467899322,3.565662171691656
23.441617250442505,84.94771945476532,33.72686479449272,23.907461411952973,3.4993381835520267
23.037293910980225,84.86975657939911,33.72704127848149,23.90752196550369,3.581911999732256
23.569586038589478,84.19903194904327,33.726552966237065,23.90734275817871,3.552697043865919
23.106508016586304,84.1468436717987,33.726370077133176,23.907240684032438,3.5079086795449257
22.690346002578735,84.09874379634857,33.726669014692305,23.907365478277207,3.607639580965042
23.069374322891235,83.32040572166443,33.72585485696793,23.907076128721236,3.3582779616117477
22.663658618927002,83.33060455322266,33.72581122279167,23.907036943435667,3.304753977805376
22.325418949127197,83.34987890720367,33.72628788352013,23.907246824502945,3.409502286463976
19.964204788208008,82.36295545101166,33.7245617210865,23.906580642461776,2.7631283029913902
20.0059494972229,82.47841310501099,33.724876574873925,23.906711294651032,2.6953188739717007
20.173649549484253,82.60868263244629,33.72560935974121,23.907030963897704,2.790990922600031
18.16536819934845,81.78948557376862,33.723325013518334,23.90631930589676,2.0243471898138523
18.582473754882812,81.93461203575134,33.72399002432823,23.906614749431608,1.983526483178139
19.16807985305786,82.10588788986206,33.724884793162346,23.906977291107175,2.0578295402228832
26.723072290420532,82.11349642276764,33.72389860928059,23.906503756046295,2.7602700740098953
26.431469678878784,82.21774959564209,33.72449775576592,23.906717717647552,3.0188207738101482
25.9740207195282,82.30853629112244,33.725523437857625,23.907128363847733,3.493381332606077
25.23943281173706,81.97857594490051,33.72404536902904,23.906430038213728,3.7060075849294662
24.993912935256958,82.0537439584732,33.72457071185112,23.906675667762755,3.898574434220791
24.68717074394226,82.14070403575897,33.72564746320248,23.907177408933638,4.308475315570831
19.16454827785492,81.706105530262,33.72345876455307,23.906358584165574,2.4707879722118378
19.635525107383728,81.798115670681,33.72406766355038,23.906658955812453,2.4577118679881096
20.220861792564392,81.91949492692947,33.72503119349479,23.907089200019836,2.614098735153675
18.732458114624023,81.31526654958725,33.72251235246658,23.906174280643462,1.9363239631056788
19.280550241470337,81.39867323637009,33.72319242119789,23.90648795604706,1.9329296275973322
20.004623293876648,81.52484613656998,33.72412532567978,23.906863429546355,2.0375228710472584
17.376753449440002,81.48631155490875,33.723479396104814,23.906833649873732,1.7606699503958227
18.133087515830994,81.55928981304169,33.724280453920365,23.907206509113312,1.781618840992451
19.113669753074646,81.6732429265976,33.72509906947613,23.907519469261167,1.880394456908107
18.06185281276703,81.8074694275856,33.725673684477805,23.907998894453048,2.0062610544264317
18.87755250930786,81.87233293056488,33.72643027663231,23.908350632190704,2.1017058696597815
19.81947636604309,81.95197504758835,33.727120071053506,23.908612973690033,2.2996435910463333
21.278137922286987,82.53141498565674,33.72751376032829,23.908907541036605,2.3891898095607758
21.744987726211548,82.58943474292755,33.72832418441772,23.909276745319367,2.6297631710767746
22.175655126571655,82.62458384037018,33.72920533835888,23.90965854883194,3.0450852997601032
22.480910778045654,83.49988269805908,33.729233753681186,23.909701882600782,3.1243194304406643
22.538678407669067,83.48375332355499,33.72978896558285,23.90996743559837,3.4634772166609764
22.56269073486328,83.445525765419,33.7306586933136,23.910390827655792,4.008095733821392
24.470940589904785,84.00041794776917,33.7304610145092,23.910449736118316,3.4764220602810383
24.187928199768066,83.95640933513641,33.730644751191136,23.910539046525955,3.6339257322251797
23.847191095352173,83.89848577976227,33.731382970213886,23.91091049313545,3.9847293347120285
26.096375942230225,84.31805622577667,33.73145619988441,23.911003991365433,4.309716507792473
25.437133073806763,84.24863922595978,33.73133975446224,23.91092837810516,4.522815331816673
24.74908685684204,84.18050253391266,33.73196871638298,23.911235884428024,4.974878527224064
30.051655530929565,85.02247834205627,33.73213478267193,23.911360113620756,5.249117970466614
28.666943073272705,84.97833061218262,33.73174767553806,23.911129722595213,5.185437634587288
27.29751205444336,84.90856206417084,33.732229673862456,23.911351405382156,5.420516826212406
30.859952926635742,85.74999499320984,33.73288143455982,23.911874504089354,4.281186185777187
29.597429990768433,85.7025055885315,33.73232204377651,23.911555657386778,4.122902996838093
28.212949991226196,85.61557912826538,33.73259121954441,23.911654505729675,4.2665205374360085
25.92214560508728,85.22051048278809,33.73289622962475,23.91198908805847,3.702821958810091
25.116339683532715,85.10203409194946,33.73256466567516,23.911796873807905,3.7931577526032925
24.352895975112915,84.97817718982697,33.732919414639476,23.911947946548462,4.127448335289955
27.525847911834717,85.30155611038208,33.73254881381988,23.91173870205879,3.587932553142309
26.608972311019897,85.18834829330444,33.73217435598373,23.911525788307188,3.621790412813425
25.66408610343933,85.05996918678284,33.73250276565552,23.911664819717405,3.873470298945904
25.899646043777466,85.22446727752686,33.73213585555553,23.911474665403365,3.0267807319760323
25.275288581848145,85.09196043014526,33.731815594434735,23.911297303438186,3.079459149390459
24.647786378860474,84.94691836833954,33.73210533201694,23.911417351961134,3.3195361346006393
33.13575601577759,86.56559896469116,33.73233927428722,23.911321189403534,3.8714512661099434
31.70791244506836,86.48226809501648,33.73165919482708,23.910887744426727,4.261923901736736
30.10493016242981,86.39073038101196,33.73174588382244,23.910833917856216,4.912912122905254
40.440450668334954,88.3236939907074,33.73334384202957,23.911704781055448,4.950138837099075
38.73813009262085,88.18518328666687,33.73226799726486,23.911050196886062,5.106172993779182
36.88242530822754,88.07206630706787,33.73203496694565,23.91082181930542,5.417707212269306
40.24097776412963,88.44155526161194,33.7346794372797,23.912755645513535,4.773776553571224
38.95271396636963,88.26806569099426,33.73365304708481,23.91212425351143,5.029513783752918
37.3046669960022,88.12580275535583,33.73342098236084,23.91189495682716,5.455228298902512
34.355305194854736,88.4911482334137,33.73532292068005,23.91322728514671,4.695448338985443
33.45019197463989,88.27842330932617,33.734488614201545,23.912746418714523,4.886277787387371
32.03291988372803,88.08650803565979,33.734373477697375,23.91260298490524,5.518933780491352
29.670265674591064,88.58415079116821,33.73506556272507,23.91305874943733,4.618605062365532
28.790253162384033,88.36750841140747,33.734551705121994,23.9127601480484,4.8079941645264626
27.770806312561035,88.17882037162781,33.73457759916782,23.912703717947004,5.448195211589336
33.28959083557129,88.56543397903442,33.73422446489334,23.91243750333786,5.055324010550976
32.0358452796936,88.36929368972778,33.73359382390976,23.912069432735443,5.092358946800232
30.583781957626343,88.20384287834167,33.73358788013458,23.911994220018386,5.493088684976101
33.708868980407715,88.96272134780884,33.733867141008375,23.912081431150437,4.843143172562122
32.47220849990845,88.72497820854187,33.73318405210972,23.911703600883484,4.87605220079422
31.027294158935547,88.53446984291077,33.73313773572445,23.911614447832108,5.252403676509857
27.219066381454468,87.35320281982422,33.73348782300949,23.912093032598495,4.842954747378826
26.476982593536377,87.28604173660278,33.73320493042469,23.91190885066986,4.845616169273853
25.70976948738098,87.22998571395874,33.73334862709045,23.911921693086622,5.131739139556885
29.0939781665802,87.6662609577179,33.73342994093895,23.911997195482254,4.681903183460236
28.18560814857483,87.59702634811401,33.7329955303669,23.911732110977173,4.604377955198288
27.178332567214966,87.53345656394958,33.73307728946209,23.91170957684517,4.80878608673811
29.904072046279907,87.53048825263977,33.73435546934605,23.912794880867004,4.028168715536594
28.958285808563232,87.48194599151611,33.733848006129264,23.912495861053465,3.816334553062916
27.883606910705566,87.4236376285553,33.733919642567635,23.912478666305542,3.8506839275360107
24.118335008621216,86.05714797973633,33.73810447335243,23.91584851503372,3.6690992154181004
23.52994418144226,85.96281862258911,33.737897315621375,23.91571343898773,3.7814690209925175
23.028123140335083,85.879962682724,33.73828021168709,23.915886677503586,4.090507611632347
22.511647701263428,85.45648193359375,33.74034728825092,23.917562664747237,3.67475264146924
22.02363348007202,85.35999178886414,33.740312896966934,23.91753712296486,3.7479687333106995
21.630398988723755,85.28206324577332,33.74095808625221,23.91787517786026,4.016333803534508
22.514153480529785,86.05701494216919,33.74271688044071,23.91916924715042,3.3324228078126907
21.98021626472473,85.99147176742554,33.74268734931945,23.919144588708875,3.3644936457276344
21.52945375442505,85.92808365821838,33.74334390580654,23.919491115808487,3.586639393121004
21.34736394882202,85.6204764842987,33.74500497639179,23.920813537836075,2.86569781973958
20.883983731269836,85.52589392662048,33.74520136773586,23.920917464494703,2.947065982967615
20.525078535079956,85.44113612174988,33.746097686886785,23.921401932239533,3.22098171710968
20.328362345695496,84.65616655349731,33.745124538540836,23.92100155711174,2.6020346619188786
20.00267481803894,84.56599032878876,33.745595883131024,23.92125811934471,2.748490482568741
19.797892928123474,84.4963870048523,33.74676638305187,23.92189086318016,3.120671458542347
21.10815978050232,84.30913591384888,33.745207998156545,23.921086304187774,2.6008504666388035
20.691280722618103,84.230140209198,33.745828044414516,23.921420890092847,2.79090928286314
20.383572340011597,84.16453945636749,33.7471309274435,23.922123779058456,3.2370079159736633
21.836174488067627,85.13417196273804,33.746218708157535,23.921637769937515,2.7260021716356277
21.288572311401367,85.01922178268433,33.74671090960503,23.921903258562086,2.93273963406682
20.83729064464569,84.89881205558777,33.747864323854444,23.922531646490096,3.390698492527008
23.937618494033813,84.87115597724915,33.74755029082298,23.92250664114952,3.236382458359003
23.192057371139526,84.73816740512848,33.748199857473374,23.922864197492597,3.612358257174492
22.46133065223694,84.6109037399292,33.74955892205238,23.92361269831657,4.343960270285606
23.965950965881348,84.59508335590363,33.74736475706101,23.92241382956505,3.205198761075735
23.21749186515808,84.48268342018127,33.748032037019726,23.922788187265397,3.464631572365761
22.50949478149414,84.37684881687164,33.74944906949997,23.92356979370117,4.081619776785374
24.169455528259277,84.55747413635254,33.747035601735114,23.92217735528946,3.629308309406042
23.288520336151123,84.43414831161499,33.747661205530164,23.922526986598967,3.995704934000969
22.4836847782135,84.32422459125519,33.74910114407539,23.923321192264556,4.791469410061836
23.848265171051025,85.14125084877014,33.74738737881184,23.922355715036392,3.645502984523773
23.00701594352722,85.02434015274048,33.74788706362247,23.922639242410657,3.829328514635563
22.23634696006775,84.90299201011658,33.749174379110336,23.923353139162064,4.391411900520325
24.41073989868164,85.45355367660522,33.747469518780704,23.922258300781248,6.941766202449799
23.41049289703369,85.33782529830933,33.74792760789394,23.922503830194472,7.980296075344086
22.63624405860901,85.24554872512817,33.74925965726376,23.92324717760086,9.553054928779602
28.157477140426636,86.45242261886597,33.7468746638298,23.921827452182768,6.7832228392362595
26.705455541610718,86.43383169174194,33.74704649150372,23.921923228502273,6.475707575678825
25.293962717056274,86.39480948448181,33.748116392493245,23.922521060705183,6.704076215624809
26.270366668701172,86.30457925796509,33.74630201756954,23.921616741418838,3.2324436344206333
25.17070984840393,86.235848903656,33.74635618746281,23.92164752960205,3.150936834514141
24.109980821609497,86.14431619644165,33.74722682714462,23.922121894359588,3.3140119574964046
24.29580783843994,85.37353801727295,33.746121553182604,23.921491371393202,4.326098099350929
23.231851816177368,85.24510955810547,33.74638916254043,23.921634747982026,4.727876245975494
22.33098840713501,85.13939690589905,33.74756072461605,23.922276235818863,5.5275939628481865
24.76718044281006,85.42714858055115,33.74600574612617,23.921478049755095,3.1931261382997036
23.848165035247803,85.30356025695801,33.74623103022575,23.921608090400696,3.2788651287555695
23.015705108642578,85.17756009101868,33.7473114991188,23.9222008228302,3.648924645036459
28.92891025543213,86.40665340423584,33.745973822474475,23.92133912563324,3.402484454214573
27.619538068771362,86.27643179893494,33.74588631272316,23.92127241015434,3.6971051655709743
26.243592262268066,86.13776588439941,33.746708629727365,23.92170439958572,4.322469741106033
32.93399906158447,87.38546514511108,33.74645887315273,23.921471726894378,5.263485558331013
31.15413522720337,87.30015087127686,33.74612791538238,23.921247751712798,5.762482047080994
29.268921375274658,87.21406412124634,33.74679571032524,23.92158223748207,6.780324041843414
31.700466632843018,87.80938863754272,33.74665521085262,23.921611781120298,4.4502119570970535
30.33273673057556,87.71069765090942,33.74623533785343,23.921348613500594,4.557703159749508
28.781097888946533,87.61172556877136,33.74673371374607,23.92159245491028,5.0775300189852715
30.869978427886963,88.59524154663086,33.746337991356846,23.921310408115385,4.438275121152401
29.582088947296143,88.42713499069214,33.745720080137254,23.92092305779457,4.637968935072422
28.127535343170166,88.28558802604675,33.745965936779974,23.921011070013044,5.274629130959511
31.27024269104004,89.44704604148865,33.74557381927967,23.92066616654396,4.4114473313093185
29.879575729370117,89.16019630432129,33.74475389480591,23.920169214010237,4.6640440300107
28.37109899520874,88.93517541885376,33.744785544872286,23.920136215686796,5.346936456859112
33.47941732406616,89.70167207717896,33.744674061536784,23.920063627958296,3.786595057696104
32.03437662124634,89.36640667915344,33.74381196200847,23.91955038189888,4.092381469905376
30.43241000175476,89.10403513908386,33.74380368471145,23.91950036406517,4.672531209886074
32.292502880096436,89.61619687080383,33.74417768120765,23.91974183797836,3.711381893604994
30.964678287506104,89.2897527217865,33.74340738296509,23.91927834153175,4.061035163700581
29.502525091171265,89.03559947013855,33.74342400193214,23.91923733949661,4.715500198304653
39.59084367752075,89.64240384101868,33.74406500160694,23.9196391916275,4.210331611335278
37.68627977371216,89.29053020477295,33.74310892820358,23.919053164720534,4.786471784114838
35.67060327529907,89.0282130241394,33.74311667442322,23.91900585412979,5.506158083677292
37.050379276275635,88.4558596611023,33.7447536855936,23.920310723781583,4.121620565652847
35.53822374343872,88.2705991268158,33.744114670753476,23.919898357391357,4.489370867609978
33.660155296325684,88.11740708351135,33.74433928966522,23.91996666073799,5.161831848323345
29.240840435028076,87.0438060760498,33.74706717669964,23.92199738264084,4.504979312419891
27.925426721572876,86.87815356254578,33.74682167947292,23.921845397949216,4.795107156038284
26.55903434753418,86.71833038330078,33.74747802138329,23.92218146085739,5.707326777279377
24.136162757873535,85.15683269500732,33.74968346774578,23.92389415502548,4.073362931609154
23.172927856445312,84.96975076198578,33.75011831820011,23.92415132522583,4.14468152821064
22.40405535697937,84.80957496166229,33.75143507361412,23.924876780509948,4.777608424425125
38.03744649887085,87.9545226097107,33.75140433549881,23.924791239500045,3.8431449085474014
36.12056350708008,87.82196068763733,33.75113471984863,23.92461378455162,4.10790341347456
33.99526929855347,87.69644618034363,33.75181251406669,23.9249706184864,4.6680918186903
40.614191055297844,88.67708969116211,33.75220673441887,23.925202375650404,4.818791061639786
38.83928394317627,88.47469663619995,33.75170616984367,23.924872685670852,5.572215192019939
36.84497928619385,88.32937169075012,33.75220481932163,23.92511699914932,6.816187188029289
38.99912929534912,88.58285188674927,33.753342108130454,23.92594400644302,5.590063281357288
37.28986835479736,88.39566802978516,33.75295923352241,23.925694832801817,6.095318369567394
35.29004192352295,88.24856281280518,33.753524224758145,23.925984132289884,7.369561105966568
36.25376319885254,88.105947971344,33.7537645560503,23.926249624490737,6.172278992831707
34.335890769958496,87.94699311256409,33.753557521700856,23.926113361120223,6.501128546893597
32.11534833908081,87.80156874656677,33.75424653291702,23.926475967168805,7.947684437036514
34.08436155319214,87.29917025566101,33.75486608564854,23.9269757771492,7.5382009744644165
31.852463245391846,87.18593740463257,33.75492552876472,23.9270018517971,7.201976016163826
29.5586416721344,87.05880570411682,33.7557191246748,23.927430164813995,8.118248119950294
35.733145236968994,87.4615626335144,33.755756670236586,23.92751228690147,8.231045737862587
33.32393741607666,87.36664462089539,33.75575900912285,23.927495553493497,8.212836220860481
30.807674884796143,87.25930404663086,33.75640031993389,23.927833976745603,9.504413068294525
33.74720907211304,87.14443612098694,33.755980919003484,23.92764288187027,10.829730093479156
31.213282108306885,87.03944730758667,33.75607238769531,23.927680797576905,10.26518477499485
28.71743416786194,86.91490340232849,33.75670232594013,23.928018480539322,11.149199292063713
31.821449756622314,86.93567872047424,33.75608301460743,23.92774095416069,7.430460661649704
29.590577840805054,86.89794898033142,33.75623689830303,23.9278167283535,6.4726384580135345
27.36443257331848,86.81976509094238,33.75682796597481,23.928132606744764,6.348450839519501
28.574819326400757,85.55564284324646,33.756234081983564,23.927886362075803,5.634508155286312
26.307339429855347,85.44190430641174,33.75656752884388,23.928056446313857,5.608187973499298
24.314287662506104,85.31598138809204,33.75718413114548,23.928378701210022,6.113837346434593
23.682809829711914,83.73704540729523,33.75649851024151,23.928083218336106,6.2012669667601585
22.094640493392944,83.73450767993927,33.757074273228646,23.92837233185768,6.794062986969948
20.91936206817627,83.7435975074768,33.75757484853268,23.928627277612684,7.5016008913517
23.39580988883972,83.56918346881866,33.756684365868566,23.928206667900085,4.820721916854382
21.948996543884277,83.65018904209137,33.75725864827633,23.92848716974258,5.319945052266121
20.825775027275085,83.71092641353607,33.75765229463577,23.928683332204816,5.664492905139923
22.152702569961548,83.30903995037079,33.75683747172356,23.92829885005951,4.611014075577259
20.93032932281494,83.42601716518402,33.75738584399223,23.928561928272245,5.18005108833313
20.018796682357788,83.51414453983307,33.75768903553486,23.92870976805687,5.4303689152002335
24.193663358688354,82.8179339170456,33.75699555039406,23.928393346071243,5.708844572305679
22.90174698829651,82.93362295627594,33.75736606538295,23.92856053352356,6.465413257479668
21.85841178894043,83.00112593173981,33.75754679262638,23.928642294406888,6.696617662906647
25.139655828475952,83.11681318283081,33.756978132128715,23.928364013433455,6.940233990550041
23.612943649291992,83.16948568820953,33.75734562695026,23.928532170057295,7.971438750624657
22.38670325279236,83.17155385017395,33.75754129946232,23.92862402319908,8.353897616267204
25.229300022125244,83.6003110408783,33.75689481198788,23.928282688856125,10.259143769741058
23.632476091384888,83.55549275875092,33.757270535826684,23.92846194624901,11.467610359191893
22.40928864479065,83.46223556995392,33.75748316526413,23.928567757606505,11.75856029987335
25.805349111557007,83.99934327602386,33.75681039214134,23.928238611221314,8.269742637872696
24.086949586868286,83.99106848239899,33.75720696210861,23.928429123163223,8.845431193709373
22.71791672706604,83.93024206161499,33.757471529841425,23.92856188893318,8.851585522294044
26.37325382232666,83.93035006523132,33.75678241670131,23.928237102031705,6.58958176523447
24.462625741958618,83.95451784133911,33.75721336722374,23.92844409704208,7.161698624491692
22.92407727241516,83.93504428863525,33.75753062427044,23.92860256910324,7.361619085073471
24.148951530456543,83.83447968959808,33.75677685916423,23.92823929786682,5.939882345497608
22.563618183135986,83.87260460853577,33.75726424336433,23.928476648330687,6.488425940275192
21.300825834274292,83.88205206394196,33.75759750783443,23.928643310070036,6.729265511035919
23.716927528381348,83.55077171325684,33.75686691701412,23.92830687522888,5.09080795943737
22.269702911376953,83.6358470916748,33.75736170947552,23.92854378223419,5.6632711589336395
21.116606950759888,83.6884126663208,33.757664112448694,23.928691822290418,5.901049323379993
22.799837350845337,83.76684045791626,33.75703309059143,23.928398277759552,4.592633903026581
21.519449710845947,83.8517370223999,33.757490149736405,23.928615829944608,5.054805673658848
