44.505415916442864,87.06644678115845,33.68548455759883,23.87914729475975,6.220553390681744
45.03352975845336,86.99757480621338,33.68492144927382,23.878791462183,6.10527741163969
39.050620555877686,86.38406205177307,33.68468534514308,23.878731482625007,4.840224593877792
41.2742838859558,86.41916680335999,33.68440084859729,23.878540320694448,4.340385220944881
42.61373376846313,86.36849594116211,33.683613062351945,23.877997931540012,4.182368911802769
34.8247275352478,85.66985630989075,33.68378197312355,23.878134252130984,4.072174713015556
36.617802143096924,85.65834069252014,33.68349475413561,23.877911069095134,3.7677431516349316
37.90834045410156,85.58070468902588,33.683015192598106,23.87754481434822,3.7033057622611523
31.335309505462646,85.40784811973572,33.6834757694602,23.877809100449085,4.906107358634472
32.2480092048645,85.37562942504883,33.683621316850186,23.877872273623943,4.827660791575909
32.90908908843994,85.30845260620117,33.68369758546353,23.877862841188907,4.877934105694294
32.96084976196289,85.02710890769958,33.6834299492836,23.877669473588465,6.518640354275703
33.70177602767944,84.99398505687714,33.68407746002078,23.878051423728465,6.944060832262039
34.33822011947632,84.92893433570862,33.68452276572585,23.87826378941536,7.314019933342934
28.514058351516724,85.06930255889893,33.68327720418573,23.87766842842102,4.600805588066578
29.025352954864502,85.0819239616394,33.68377259209752,23.87796869814396,4.583302162587643
29.47826600074768,85.07418990135193,33.684173272550105,23.87817018389702,4.508716970682144
28.532345056533813,84.89548003673553,33.68328687891364,23.87770665615797,4.029647618532181
28.780935764312744,84.90672707557678,33.683883430361746,23.87806149095297,4.386645615100861
28.96943426132202,84.8848842382431,33.68434936761856,23.878297584354875,4.584619462490082
30.71548080444336,85.07088899612427,33.683779003918175,23.877915041446684,4.838034570217133
31.15049695968628,85.09273862838745,33.68464318752289,23.878430165052414,5.219239167869091
31.632524490356445,85.08734059333801,33.68529994517565,23.878768813610076,5.385452978312969
27.25614643096924,85.15757083892822,33.68371234431863,23.87799461007118,4.064895533025265
27.637717485427856,85.19386005401611,33.684395799338816,23.878407922387122,4.3001138642430305
28.059041261672974,85.21612596511841,33.68495484814048,23.878697536587715,4.355619162321091
26.70077419281006,85.2299017906189,33.6835640463233,23.87793471455574,4.57634786516428
26.94173789024353,85.25971221923828,33.684233186393975,23.87833947151899,5.0684571117162704
27.25844120979309,85.27152037620544,33.68476000711322,23.878610344231127,5.286754727363586
38.62799024581909,85.75866389274597,33.684557991176845,23.878233623504638,6.5274393409490585
38.28297710418701,85.80930542945862,33.68584390923381,23.878998816609382,6.91859795153141
38.131896018981934,85.80368423461914,33.68646447584033,23.87930195629597,6.704473853111267
39.81978511810303,85.4176414012909,33.68340140923858,23.87754344731569,5.223400950431824
40.54969406127929,85.41721796989441,33.68399785071612,23.877905321121215,5.140359088778496
41.102219581604,85.37388205528259,33.68407569915056,23.877903226315976,5.038802944123745
26.3768789768219,84.36436831951141,33.682821995764975,23.877531326413155,3.587437015026808
26.804104804992676,84.25039732456207,33.68261616706848,23.877395222634078,3.233462706208229
27.220256090164185,84.11747634410858,33.68258600026369,23.8773462960124,3.1349148266017437
28.645238637924194,83.29463076591492,33.683004219681024,23.877599195241928,5.016909748315811
28.85570740699768,83.09607541561127,33.683052695244555,23.87761762291193,5.111834801733494
28.853989601135254,82.87129628658295,33.68314442947507,23.877643526792525,5.26768958568573
26.901877880096436,82.7061619758606,33.684055204391484,23.878183372318745,4.24614480137825
26.92366337776184,82.57448410987854,33.68437105596065,23.87838732302189,4.420321084558964
26.843786001205444,82.44423568248749,33.6846376863122,23.878532128334044,4.46465565264225
30.281820058822632,83.47589766979218,33.68702119112015,23.879720141291617,4.289485946297646
30.65429663658142,83.41726922988892,33.68788436084986,23.880252183377742,4.151192255318165
31.071687698364258,83.33264553546906,33.68863988146186,23.880669313371182,3.89691012352705
30.5149028301239,84.16145527362823,33.68856235355139,23.880575876832008,3.7094986476004124
30.92496609687805,84.11398875713348,33.689382157325745,23.881076162457465,3.7631341107189655
31.308430194854736,84.0229971408844,33.69010902658105,23.881474252343178,3.7115515433251858
30.169334173202515,85.12511968612671,33.68916468650103,23.880884939730166,3.8965208679437637
30.680646657943726,85.17054915428162,33.68998856857419,23.881389608979227,4.043114319443703
31.19308090209961,85.17961287498474,33.690709185600284,23.881782343387602,4.0552127584815025
31.320632457733154,85.90956139564514,33.68924512863159,23.880930278897285,4.21141455322504
31.876083374023438,85.97817659378052,33.69020994603634,23.881512919962407,4.703339397907257
32.417598724365234,86.01491141319275,33.69094177737832,23.881900041401387,4.954163491725922
35.723732471466064,87.22973465919495,33.6904926790297,23.881549982726575,5.9772800505161285
35.559032917022705,87.23540592193604,33.69152119085193,23.882208119928837,6.430965311825275
35.39491033554077,87.23125457763672,33.691959042698144,23.882425938546657,6.380252115428448
35.46716547012329,88.14454245567322,33.69294447690248,23.88301532536745,5.615636132657528
35.20076847076416,88.03053641319275,33.693505713045596,23.883434897959233,5.439297318458557
35.07309055328369,87.96503400802612,33.693612483739855,23.883463808596133,5.196869879961014
37.58384561538696,88.88700294494629,33.69544131308794,23.884481546878813,6.816826224327087
36.331032276153564,88.59503769874573,33.695738182663916,23.884792076051234,6.703637003898621
35.55694913864136,88.42858338356018,33.69559124320745,23.884663152992726,6.621674731373787
37.316447257995605,88.9230124950409,33.69734968870878,23.885618739128113,8.940288186073303
35.912259578704834,88.59481739997864,33.697310442626474,23.88574767112732,8.453754916787148
35.04125213623047,88.41136431694031,33.696994282603264,23.88551112174988,8.211224883794785
33.11578369140625,86.86915063858032,33.69722488820553,23.885697499513626,7.293773278594017
32.59540414810181,86.80618739128113,33.69697724789381,23.88560415148735,7.006467118859291
32.21249437332153,86.77436351776123,33.69681490987539,23.885462536215783,6.6096141785383224
36.01281499862671,85.66501259803772,33.69661683678627,23.885411282777785,5.446730390191078
35.19360399246216,85.57372951507568,33.69654905468226,23.885406115055083,5.67340387403965
34.54274272918701,85.48390483856201,33.696495126187806,23.885321319699287,5.669222980737686
34.072941303253174,85.08512616157532,33.69636462062597,23.88531082868576,5.607092626392841
33.8925347328186,85.01192545890808,33.69644789785147,23.88537447750568,6.018816068768501
33.60505199432373,84.91142523288727,33.696573596894744,23.885397616028786,6.168497413396835
34.10072422027588,85.2131998538971,33.696582249701024,23.885480285286903,5.436123929917812
34.082404136657715,85.19191241264343,33.69672779172659,23.88557038962841,5.963957518339157
33.87584066390991,85.12661027908325,33.69689161300659,23.88560896873474,6.235251560807228
26.94318389892578,84.66584146022797,33.6966316613555,23.88571676671505,4.155742958188057
27.245402097702026,84.60056221485138,33.696636821925644,23.885706749558448,4.202793262898922
27.5449321269989,84.51025223731995,33.69698397219181,23.88588331580162,4.186530023813248
22.717146635055542,84.97872185707092,33.6958097332716,23.885362139344213,3.0097984932363033
22.733866930007935,84.90824699401855,33.69605700880289,23.885512673854826,3.2704736702144146
22.724388599395752,84.8122478723526,33.696571526229384,23.885807391405105,3.447505835443735
23.786985635757446,85.18009853363037,33.69648272365332,23.885674704313278,3.899162173271179
23.775027751922607,85.07833981513977,33.6970821544528,23.886064697504043,4.365080319344997
23.93301820755005,84.98725056648254,33.69770194321871,23.886422139406204,4.559388592839241
23.249937057495117,85.21621322631836,33.69743969559669,23.886214225292207,3.8734612464904785
23.726905345916748,85.1806321144104,33.698009115159515,23.88662649691105,3.6853607781231403
24.355695009231567,85.15944766998291,33.698588096797465,23.886990292072294,3.2854377143085003
30.614654779434204,86.03562092781067,33.69786157757044,23.886287192106245,3.7837443724274635
30.72937822341919,86.08512878417969,33.69859963297844,23.88681828022003,3.640827726572752
30.84769344329834,86.11549639701843,33.699036508500576,23.88708578944206,3.212891336530447
30.859013557434082,86.89251947402954,33.69778471887112,23.886195714473725,3.6113482378423214
30.981001615524292,86.95314240455627,33.69821035593748,23.886544988155364,3.370855174958706
31.14676570892334,87.01840305328369,33.69843176960945,23.886671731472013,3.093953136354685
35.77647066116333,87.44456243515015,33.69735590338707,23.88580922603607,4.404525555670261
34.94223928451538,87.441077709198,33.697676277160646,23.88609751343727,4.528100959956646
34.31519603729248,87.46158409118652,33.69769333869219,23.886077674031256,4.4210533276200294
35.33520317077637,88.30058479309082,33.697417961657045,23.885843524336813,4.297930881381035
34.64438533782959,88.18148398399353,33.69756218135357,23.88602892935276,4.3712175488471985
34.14280033111572,88.12583923339844,33.69745270699263,23.88592445552349,4.37955754250288
31.011210441589355,88.50592041015625,33.69729502797127,23.88585064470768,3.670022565871477
31.15416145324707,88.38786315917969,33.69738812476397,23.885971336960793,3.813989967107773
31.258760452270508,88.32378339767456,33.69734738200903,23.88590784192085,3.9161543026566505
24.768019676208496,88.38660860061646,33.69685488820076,23.8856740963459,3.0522620528936386
25.39363121986389,88.37242364883423,33.69715183287859,23.885887224674224,3.3781190998852253
26.001035928726196,88.36493349075317,33.697432281970976,23.886025261878967,3.628631889820099
23.644485235214233,88.5529248714447,33.69853841155768,23.886653953790663,3.497293669730425
24.11424732208252,88.49152445793152,33.69902130305767,23.887019778490068,3.6021127216517925
24.64192008972168,88.44731593132019,33.69943737536669,23.88726786494255,3.555648311972618
23.24390745162964,88.65981197357178,33.70028646081686,23.8877484023571,3.078019306063652
23.65371322631836,88.57865190505981,33.700757424533364,23.8881352609396,2.905402559787035
24.121070861816406,88.52234983444214,33.701142224967484,23.88838598668575,2.683776658028364
23.740987539291382,88.92030882835388,33.70121239155531,23.888299780488016,2.907996255904436
23.926597595214844,88.79731488227844,33.70168483316898,23.888704919219016,2.6853336803615093
24.2099449634552,88.71433234214783,33.70202691137791,23.88893731832504,2.446966603398323
23.89983868598938,89.0591242313385,33.70174059092999,23.888597477078438,3.0027597062289715
24.07805895805359,88.90533638000488,33.7021799877286,23.888994127511978,2.73059294000268
24.362860679626465,88.80188536643982,33.70249009668827,23.88921219110489,2.4637342654168606
20.02986764907837,85.4003586769104,33.70129871040583,23.888672037124632,2.780224870890379
20.38390016555786,85.32176065444946,33.701567180752754,23.888907692432404,2.5854745358228683
20.81260061264038,85.27573823928833,33.701978738904,23.889196514487267,2.3160833530128
19.9054936170578,83.49339389801025,33.70195284485817,23.889347730278967,3.1438985504209995
20.276980757713318,83.42875266075134,33.70189836382866,23.889386532902716,2.8936692364513874
20.80154812335968,83.42147278785706,33.70203607648611,23.88949943423271,2.615442857146263
20.763225317001343,83.2979484796524,33.70257943570614,23.889961092472078,2.541160922497511
21.251671075820923,83.31523549556732,33.70260460287333,23.890060525536537,2.2553308997303247
21.83637237548828,83.35113275051117,33.70283176988363,23.890233896374703,2.0520244017243385
19.992894291877747,82.82024669647217,33.702233031094075,23.890023248195646,2.005532331764698
20.354307651519775,82.87596583366394,33.70232237815857,23.890145218968392,1.8910940401256087
20.721001386642456,82.95183908939362,33.7025408628583,23.890297747254372,1.8432211354374888
19.306748867034912,82.09851217269897,33.70200313091278,23.88990612864494,2.6829374618828297
19.55432391166687,82.22175860404968,33.70192933261394,23.88992027461529,2.539269294589758
19.793097734451294,82.3673825263977,33.702053653001784,23.890007508993147,2.5142152830958366
18.430707216262817,81.73724490404129,33.70212316244841,23.890013840794563,3.258160822093487
18.830615639686584,81.91276901960373,33.70177106618881,23.88985127568245,2.953716017305851
19.183282613754272,82.09733664989471,33.70174825400114,23.889843252301215,2.8602720461785793
19.725947737693787,81.6859941482544,33.70211514264345,23.889791008234024,7.188077479600906
19.928663730621338,81.84655386209488,33.70158767551184,23.889488145709038,7.214811727404594
20.195677638053894,82.00371289253235,33.701410193741324,23.88935186803341,7.374775320291519
22.067147254943848,82.19112312793732,33.7030581215024,23.88997801542282,14.90628010034561
22.89805030822754,82.31679320335388,33.70257984608412,23.889741478562353,14.400453031063078
23.51676082611084,82.38381087779999,33.70246038049459,23.889650152921675,13.91334107518196
18.683507800102234,81.9627668261528,33.70272259324789,23.89012888431549,6.728519186377525
19.348950743675232,82.09116113185883,33.70191765159369,23.889678557515143,4.924101293087006
19.96933674812317,82.23865687847137,33.70172962069511,23.88959313094616,3.61738371104002
18.842905521392822,81.78594148159027,33.70203613013029,23.890037170648576,2.8124759197235107
18.956379055976868,81.89102274179459,33.70154984295368,23.889757700562477,2.383262127637863
19.200321793556213,82.06759309768677,33.70149926453829,23.889735077023506,2.1785265151411295
17.81386709213257,81.73475778102875,33.70226168513298,23.89031749010086,2.5524347499012947
18.232476472854614,81.88769519329071,33.701824460923675,23.890069144368173,2.3094361685216427
18.668179273605347,82.09104096889496,33.701797013878824,23.890049607157707,2.2457178626209497
17.77356719970703,81.77415031194687,33.702547664940354,23.890641542077063,1.903789019212127
18.469680309295654,81.95121830701828,33.70231466948986,23.890525550842284,1.7824033033102753
19.109936118125916,82.15976810455322,33.70246321290732,23.890618639588354,1.7661553192883732
17.03798806667328,81.67782324552536,33.702890352010726,23.89099738895893,1.8351685572415593
17.976783871650696,81.87105423212051,33.70267883837223,23.890891332626342,1.7486840803176167
18.78409242630005,82.08080923557281,33.702844859063624,23.890983192920686,1.7609837688505652
17.172755360603333,81.70803993940353,33.70310387462378,23.89114101052284,1.8696248009800913
18.088534235954285,81.89769268035889,33.702891658246514,23.891035109758377,1.7962556555867197
18.839685678482056,82.09206414222717,33.70302749872208,23.89110115468502,1.8265203610062601
17.539793610572815,81.26144409179688,33.70376418352127,23.89152078092098,2.30204307846725
18.2876638174057,81.4412157535553,33.70325892776251,23.891216443181037,2.2736971583217382
18.84315526485443,81.62006115913391,33.70310919612646,23.891081417202948,2.420971304178238
18.49563753604889,81.44062530994415,33.70456574290991,23.891889713406563,2.5848445519804955
18.938599586486816,81.55202960968018,33.703830004930495,23.891444393396377,2.4559241756796837
19.297261595726013,81.67389577627182,33.70349774360657,23.891204521656036,2.513245664536953
17.892616152763367,81.64262783527374,33.70410532563925,23.89159272134304,2.35757427662611
18.529694437980652,81.75000417232513,33.703341456651685,23.891134369373322,2.1566199082881212
19.101356625556946,81.87793070077896,33.703070392608645,23.890945817232133,2.122427359223366
18.171214818954468,82.09037470817566,33.70298999071121,23.89075283408165,2.346087548881769
18.733238339424133,82.19680440425873,33.70241414994001,23.890425429344177,2.10113263130188
19.259940147399902,82.32634973526001,33.702303420305256,23.890354418754576,2.010308340191841
19.89394521713257,82.6801860332489,33.70198283731938,23.88992544054985,2.1709561478346586
20.12969470024109,82.79059290885925,33.701878284811976,23.88992037296295,1.9509513899683955
20.380580186843872,82.91139280796051,33.70204827785492,23.890047139525414,1.8477156795561316
20.578371047973633,83.0400937795639,33.70181762129069,23.889737796783447,2.0416124016046524
20.700409770011902,83.1369104385376,33.701917654275896,23.88987640619278,1.8519248198717835
20.85469400882721,83.24273109436035,33.70219145953655,23.890080629587175,1.7549756206572058
20.854727387428284,83.76585018634796,33.701747980415824,23.889616117477416,2.0868104733526707
20.919620156288147,83.8192926645279,33.702016112804415,23.88985912024975,1.9278710652142765
21.006481409072876,83.88157212734222,33.70236290633679,23.890106199979783,1.8255278598517182
25.388989210128784,84.70604491233826,33.70180448383093,23.889341012239456,2.585209835320711
25.316481351852417,84.71875286102295,33.70225111991167,23.889681300520895,2.548663228750229
25.38571572303772,84.72367131710052,33.702687625288966,23.889959535002706,2.4549932815134525
27.842434406280518,85.61577868461609,33.70203013807535,23.88923176765442,3.299016397446394
27.98881506919861,85.61763048171997,33.70238779187203,23.88953194797039,3.1536956541240215
28.150566577911377,85.61250710487366,33.70270231038332,23.88973531126976,2.884132642298937
25.310771226882935,84.27985548973083,33.701983542740344,23.889324001669884,3.2286751307547092
25.48285937309265,84.18070924282074,33.70226969689131,23.88956107676029,3.1846096217632294
25.740276336669922,84.10887324810028,33.70263092070818,23.889798672199248,2.9875780679285526
21.524460077285767,83.90843462944031,33.70213038027286,23.889605342149736,3.059570401906967
21.87152361869812,83.79422080516815,33.70243761390448,23.88985579073429,2.984502077102661
22.353951692581177,83.73711407184601,33.70287687122822,23.890149349570272,2.847078427672386
21.242961645126343,83.93418204784393,33.702038442194464,23.88951841175556,3.3514755442738533
21.556516647338867,83.8442440032959,33.70230132550001,23.8897428804636,3.255037557333708
22.009291410446167,83.80313324928284,33.70268981933594,23.890002725720404,3.0897276513278484
20.41336989402771,83.87244725227356,33.703120759129526,23.890376026630403,2.5852651558816433
20.677253365516663,83.8348137140274,33.70324409514666,23.89052112162113,2.3948864862322807
21.00746250152588,83.83161687850952,33.70351496607065,23.890718001127244,2.2381472438573837
20.36059832572937,84.00809836387634,33.70580342948437,23.89229736983776,2.258700927719474
20.59010422229767,83.98368489742279,33.70587307572365,23.892407297492028,2.1159385088831186
20.879629611968994,83.98643434047699,33.7060918661952,23.89257229089737,2.010553762316704
19.870439529418945,83.35291695594788,33.70758563935757,23.893683328032495,2.121933748945594
20.021748900413513,83.35582876205444,33.70751507043838,23.893695896863935,2.0503272339701653
20.216978549957275,83.38413858413696,33.707600506842134,23.893765822052956,2.0273304767906666
29.500951528549194,83.26158952713013,33.70885303944349,23.8942363011837,2.9763780012726784
29.29655885696411,83.29972302913666,33.70877865105867,23.894243223071097,3.0820501632988453
29.00695776939392,83.28979349136353,33.708803300559524,23.894251818656922,3.0566431060433388
23.19534397125244,83.0187383890152,33.70926105976105,23.894885719418525,2.502525210380554
23.11216449737549,83.06134188175201,33.70917411863804,23.894890856742858,2.3323544710874557
23.15053677558899,83.11236035823822,33.70935283958912,23.895028368234634,2.2431088276207447
22.06515407562256,83.00728464126587,33.708827443122864,23.894646053314208,2.8853560648858547
21.740524530410767,82.99706256389618,33.70866593122482,23.894567056894303,2.688082776963711
21.538936853408813,83.02774739265442,33.70878693908453,23.89465312361717,2.5549072436988354
21.295711755752563,83.4641102552414,33.70882479578257,23.89466499686241,2.5369409695267677
20.928255081176758,83.43034160137177,33.708642810583115,23.894576355218888,2.3338897842913866
20.647804498672485,83.43250524997711,33.708728142380714,23.894645243287087,2.2092478666454554
19.792371153831482,83.92189252376556,33.70834345728159,23.894360505342483,2.0959297325462103
19.683436512947083,83.91401648521423,33.70838287502527,23.894430907964704,1.9892756305634978
19.630163073539734,83.93356013298035,33.70860596507788,23.894594660401342,1.941772283986211
18.628374695777893,83.22964549064636,33.7084565526247,23.89442057788372,2.3255994115024805
18.76871383190155,83.23284125328064,33.70834564059973,23.89439552605152,2.267010662704706
18.91993021965027,83.27280187606812,33.70840627461672,23.8944420838356,2.2957066111266613
18.393776178359985,82.73651850223541,33.70854210704565,23.89443037688732,2.6948382556438446
18.670628428459167,82.81822216510773,33.708235849738124,23.89429058372974,2.579251643270254
18.94391930103302,82.9123147726059,33.708198229074476,23.894273403286935,2.596759259700775
25.930408000946045,83.6573086977005,33.709390312731266,23.894661989212036,3.239650897681713
25.709508419036865,83.7072525024414,33.70930989742279,23.89468751847744,3.0550592616200447
25.582408666610718,83.7227531671524,33.70943264335394,23.894786713719366,2.8548092246055603
29.392891883850098,84.07048761844635,33.71101498842239,23.895907317399978,3.0029431022703648
28.96463966369629,84.10162878036499,33.71072014927864,23.89575500011444,2.8251339346170425
28.506449222564697,84.09802603721619,33.71067845433951,23.895710309147834,2.684176977723837
28.846919298171997,84.10858428478241,33.71193166822195,23.896743805408477,3.4082867428660393
28.19014048576355,84.10497546195984,33.71169052153826,23.896552810668943,3.4354055523872375
27.465609073638916,84.08407926559448,33.71170253783465,23.896498787403107,3.3593974485993385
34.60787391662598,84.73919951915741,33.71304130077362,23.897419110536575,4.279053829610348
33.496235370635986,84.75342452526093,33.712710798978804,23.89715683341026,4.5741618648171425
32.26512050628662,84.71180236339569,33.712536163032055,23.89692633867264,4.66937056183815
32.542725563049316,84.52048325538635,33.71302319586277,23.897413638830184,6.74273020029068
31.35754919052124,84.4784140586853,33.71271059244871,23.897123366594315,7.59266322851181
29.985309600830078,84.38177800178528,33.71258359789849,23.896888995170592,8.281634211540222
32.20830059051514,84.75019907951355,33.71306275844574,23.89725357890129,9.819048255681992
31.116260051727295,84.72532498836517,33.71267856687307,23.896941482424737,10.663052931427956
29.87886881828308,84.64655065536499,33.712507897913454,23.896680825352668,11.37302494049072
26.31465172767639,84.73278725147247,33.71328976988792,23.89763983309269,5.369609504938126
25.797672033309937,84.70568406581879,33.712722970843316,23.897199421525002,4.959290869534016
25.222776889801025,84.66163074970245,33.712526791393756,23.896975698471067,4.490965440869331
27.79774761199951,85.19249391555786,33.713248812556266,23.89776940524578,3.585040293633938
27.13052725791931,85.24508094787598,33.71293896645307,23.897469756007194,3.795485742390156
26.322173833847046,85.26343512535095,33.712937754094604,23.897351127266884,3.886858209967613
20.665152430534363,83.4922126531601,33.71278996169567,23.897548559308053,3.2908485680818558
20.21609342098236,83.35941076278687,33.71257781237364,23.89735399544239,3.373025920242071
19.961580991744995,83.3027092218399,33.71275473356247,23.897421971559524,3.4838200956583023
20.779198169708252,82.6118426322937,33.71325155377388,23.89776992738247,3.385485954582691
20.433900117874146,82.63217413425446,33.71297600239515,23.897603446245192,3.4211095459759235
20.277284741401672,82.70125532150269,33.713015492558476,23.8976181769371,3.559531480073929
21.69936990737915,82.44355010986328,33.71361855506897,23.898086436986922,3.130260020494461
21.44961929321289,82.50399494171143,33.71318586111069,23.897830752730368,2.9381501525640488
21.32287836074829,82.57755756378174,33.713142157197,23.89780305802822,2.8725877441465855
25.7857666015625,82.71975898742676,33.71400731176138,23.898353416919708,3.109859474003315
25.366546869277954,82.71705138683319,33.71345744550228,23.89798504948616,2.9649378769099712
25.003612995147705,82.71470069885254,33.71331026732921,23.89785587787628,2.886369436979294
26.838496685028076,82.9349594116211,33.71442554861307,23.898728627562523,3.1519810520112514
26.385950803756714,82.88555383682251,33.713767036795616,23.89825109422207,3.004016488790512
25.950460195541382,82.84445774555206,33.713529832959175,23.898033686876296,2.9032799266278744
23.957974672317505,83.05883812904358,33.713828687369826,23.898410463929174,3.1894285455346107
23.494828701019287,82.98675894737244,33.71327335476875,23.897977594733238,3.032998763024807
23.130221128463745,82.95653188228607,33.71314381748438,23.89782920062542,2.9165008701384068
24.48444700241089,83.36151540279388,33.71359622299671,23.89810349047184,4.3057864010334015
23.890647649765015,83.2796983718872,33.71322175979614,23.89778223156929,4.380865789949894
23.370463609695435,83.2293826341629,33.713192590773104,23.89768451154232,4.390220999717712
24.379987478256226,83.2420254945755,33.71373047828674,23.89807128071785,5.042965397238731
23.82701015472412,83.18188786506653,33.7132566767931,23.89770620524883,4.989403694868088
23.34324812889099,83.14728486537933,33.71315211355686,23.8975728726387,4.863451853394508
25.880470037460327,83.91358232498169,33.71374450623989,23.898060925602913,4.39452862739563
25.285255670547485,83.87287640571594,33.71329951703549,23.89773078858852,4.103673905134201
24.71601700782776,83.83499002456665,33.71321435958147,23.897618482708932,3.779664061963558
27.329567432403564,84.30895674228668,33.713322187066076,23.897762910723685,4.195136226713657
26.594013929367065,84.29245722293854,33.71299713820219,23.89748786628246,4.1939758360385895
25.804710149765015,84.26293396949768,33.712977059185505,23.897392910718917,4.057710900902748
26.012681484222412,84.9814316034317,33.71327352911234,23.8976816791296,4.41638695448637
25.288153648376465,85.00067734718323,33.71306212812662,23.897486432194707,4.433290906250477
24.546701669692993,85.00319504737854,33.71316717416048,23.897478010058403,4.278394006192684
23.547335624694824,85.09823822975159,33.713125720620155,23.897510920763015,4.054771535098553
23.020540237426758,85.07665610313416,33.713012649416925,23.897397246956825,4.149450495839119
22.57108783721924,85.05521059036255,33.713247876465324,23.89749863266945,4.074457608163357
21.853583812713623,84.98278272151947,33.71440951436758,23.898329842090607,3.8655607998371124
21.55912494659424,84.90819442272186,33.71431568801403,23.898258731365203,3.895652838051319
21.381988286972046,84.85970151424408,33.714545859098436,23.898387382626535,3.7607065439224243
22.845552921295166,85.9546446800232,33.716403642892836,23.899608063101766,3.5818702578544617
22.543678045272827,85.93560242652893,33.71626109957695,23.899535895586013,3.4216885678470135
22.3109290599823,85.92837119102478,33.71642727851868,23.899637849926947,3.123328521847725
26.84260106086731,86.69410252571106,33.7173379689455,23.900024275779725,4.706527203321457
25.827852249145508,86.67684555053711,33.71704405784607,23.89988137304783,4.459815606474876
24.87739658355713,86.66936826705933,33.71702656984329,23.899856660962104,3.924121469259262
26.92326283454895,87.80258655548096,33.71813290059566,23.900443494319916,5.249156527221203
25.93280529975891,87.76076483726501,33.71765159428119,23.9002164041996,4.468913659453392
25.101048707962036,87.74916124343872,33.71751557946205,23.90011791348457,3.7381230145692825
25.634772539138794,87.53273558616638,33.71827632904053,23.90062784075737,4.314535431563854
24.92024517059326,87.53002405166626,33.7177177375555,23.90030790686607,3.8270312026143074
24.29842209815979,87.54666590690613,33.71755641877651,23.900174808502197,3.367874402552843
29.79211664199829,88.41236209869385,33.71851900994778,23.900745046138763,3.9539017006754875
28.59503722190857,88.32916855812073,33.71806416630745,23.900522894859314,3.8786643967032433
27.422535181045532,88.29098463058472,33.71785214304924,23.900341434478758,3.730661276727915
33.2648811340332,88.7073142528534,33.7189589458704,23.900891469717024,5.851370453834534
31.471034049987793,88.53515863418579,33.718539818525315,23.900753293037415,5.62944682687521
29.881484270095825,88.44931936264038,33.718382142186165,23.900614433288574,5.395655766129494
31.875749588012695,88.66714906692505,33.71896521687508,23.90087114930153,6.389658287167549
30.285191297531128,88.49596405029297,33.718455200195315,23.900669479370116,5.847955666482449
28.865264415740967,88.40532326698303,33.71823683619499,23.900491813421247,5.365120157599449
36.74592590332031,89.07181572914124,33.71909012198448,23.900896594524383,6.843304991722107
34.564555644989014,88.79884767532349,33.7186768257618,23.90082553744316,6.355963371694088
32.888766288757324,88.6660475730896,33.71857702612877,23.900736792087553,6.047526098787785
35.490344524383545,89.07322907447815,33.71891275286674,23.90084794282913,6.814019292593002
33.607624530792236,88.79819536209106,33.718448666334154,23.90071736216545,6.254210419952869
32.09558343887329,88.65741515159607,33.71828895688057,23.9005753159523,5.909249171614647
33.5231409072876,89.29456424713135,33.718849415183065,23.900819393396375,6.3419796749949455
31.86488962173462,88.98615312576294,33.718410788178446,23.900702642202376,5.729624316096306
30.48628067970276,88.81971454620361,33.71822604298592,23.90054598331451,5.369790889322758
35.301838874816895,89.145747423172,33.71988746225834,23.90148929834366,8.588626444339752
33.30170726776123,88.84747219085693,33.71957191109657,23.901475365161897,8.235996425151825
31.67152500152588,88.69407773017883,33.71960343241692,23.901470258235932,8.136636674404144
31.371499061584473,88.87607884407043,33.72308286905289,23.904015152454374,6.3157889097929
30.01190996170044,88.67431879043579,33.72257862985134,23.903829869031906,5.479724578559399
28.78132438659668,88.56379461288452,33.72241241335869,23.903698422908782,4.86212483048439
29.148945569992065,87.82279753684998,33.72475287139416,23.905549082756043,4.276874199509621
27.933600902557373,87.79381251335144,33.724222781062124,23.905240442752838,4.090173341333866
26.7003116607666,87.78098940849304,33.72401188969612,23.905040954351424,3.8513162583112717
28.29385733604431,87.27316427230835,33.726191248893734,23.906701678037642,4.541370518505573
26.957319736480713,87.2450339794159,33.72575874269008,23.90643545269966,4.540496453642845
25.59652304649353,87.22149848937988,33.72564562857151,23.90629569172859,4.368715718388557
28.575650215148926,87.07818913459778,33.726931999921796,23.90724457144737,4.644620478153229
27.16708278656006,87.05087280273438,33.726499831676485,23.906984078884125,4.602175191044807
25.750579595565796,87.02560424804688,33.726399962306026,23.906857964992522,4.399543017148972
24.437904119491577,85.53548336029053,33.726644188165665,23.90723306298256,4.048000633716583
23.3725163936615,85.42349791526794,33.726156685948375,23.906888234615327,3.9318100214004517
22.39430046081543,85.31859850883484,33.72599514186382,23.906717109680176,3.6829776354134083
24.469094038009644,85.33411383628845,33.726597378253935,23.907288945913315,3.8254031017422676
23.44903802871704,85.26065564155579,33.726213940382,23.907011569738387,3.772983517497778
22.479557752609253,85.17908072471619,33.72610997259617,23.906880531311035,3.5793994404375553
23.456424236297607,85.12866735458374,33.72652589738369,23.90732152223587,3.692577261477709
22.643279790878296,85.08607029914856,33.72621114552021,23.90708578109741,3.619621343910694
21.87741255760193,85.02859377861023,33.72614928841591,23.90698400378227,3.4397778883576393
23.44757056236267,84.30776512622833,33.726054601073265,23.907058265209198,3.495475634932518
22.673078536987305,84.28761315345764,33.72571631014347,23.90680468559265,3.443416975438595
21.937182903289795,84.2484872341156,33.72563401460648,23.906692272424696,3.3284702375531197
23.360328435897827,83.38115525245667,33.72547299087048,23.90672246336937,3.2228874266147614
22.70076012611389,83.39926588535309,33.72509389281273,23.906443045139312,3.1716553904116154
22.080904006958008,83.39822518825531,33.72501496076584,23.906338027715684,3.1395304054021835
20.538270235061646,82.3358941078186,33.724987913370136,23.906528557538984,2.9041057117283344
20.240115880966187,82.3622258901596,33.72443072736263,23.90612299323082,2.7473396472632885
20.057043194770813,82.40356194972992,33.72427047073841,23.90596580862999,2.7580559104681015
18.762163281440735,81.94349247217178,33.72669370174408,23.907840497493744,2.5693993866443634
18.6363867521286,81.91872012615204,33.72589785814285,23.907282891273496,2.344512337818742
18.559796571731567,81.9128782749176,33.72544288575649,23.906925266981123,2.3467120844870806
26.411757230758667,82.33427798748016,33.731499335169794,23.911095633506775,3.322019524872303
26.19472360610962,82.1277117729187,33.73148915886879,23.91112872123718,3.374366018921137
25.869874715805054,81.92441928386688,33.73177606940269,23.911293390989304,3.5669982470571995
24.03770661354065,81.72244966030121,33.73358931779861,23.912697123289107,3.3336536064743996
24.126696348190308,81.5649465918541,33.73363203465939,23.912769625186918,3.1430430933833122
24.191137313842773,81.42249876260757,33.73397895693779,23.912982553243637,3.13966753333807
18.89372444152832,81.3601279258728,33.73233274579048,23.911895675659178,2.951027438044548
18.995089888572693,81.26203489303589,33.73189220368862,23.911605163812638,2.6961072757840157
19.106409907341003,81.18463206291199,33.731665165424346,23.911398040056227,2.7395322397351265
18.544046640396118,81.29937928915024,33.73416638433933,23.913071616888047,3.693068776279688
18.560938596725464,81.18111032247543,33.73403128147125,23.912992030382156,3.972344569861889
18.56491482257843,81.08602637052536,33.73409149169922,23.91296023726463,5.125351458787918
16.865518450737,81.59866839647293,33.73703604221344,23.915040715932847,3.684130482375622
16.950167775154114,81.40462720394135,33.73723360836506,23.91523349523544,3.825903333723545
17.015523672103882,81.25649988651276,33.73754115581512,23.91540887236595,4.781495615839958
17.264418959617615,81.76535660028458,33.736443826556204,23.91453642487526,4.044242523610592
17.151615977287292,81.54887157678604,33.73655091106892,23.914665632247925,4.350377455353737
17.05212926864624,81.37761735916138,33.7367594742775,23.914772816896438,5.555907696485519
20.511303305625916,82.5073573589325,33.73470599651336,23.9132306933403,4.088990822434425
19.9105087518692,82.23079907894135,33.73464823782444,23.913262575864792,4.236492536962032
19.414211869239807,81.98776698112488,33.734727432727816,23.913295513391493,4.953525461256504
22.39665961265564,83.31124866008759,33.732030895352366,23.911440440416335,3.060844451189041
21.90639591217041,83.16084611415863,33.73163551092148,23.911234865188597,2.659114919602871
21.454859733581543,82.9846396446228,33.73146828055382,23.911116461753846,2.444737184792757
24.668192625045776,83.78756606578827,33.73114723622799,23.910914562940597,2.8105566315352917
24.130892515182495,83.74455094337463,33.7308404558897,23.91072613239288,2.5493200346827507
23.52172589302063,83.6437166929245,33.7307820802927,23.9106496322155,2.4105529338121414
25.76842164993286,84.13525259494781,33.730342257022855,23.910405622720717,3.267513684928417
25.08970355987549,84.16965174674988,33.73017030596733,23.910268522500992,3.050151489675045
24.269054889678955,84.14132368564606,33.730189891457556,23.910214002132413,2.882368754595518
30.931039810180664,85.22362613677979,33.730264886021615,23.91024633526802,3.9576588049530983
30.01592254638672,85.36207175254822,33.73047784268856,23.9103978908062,3.9707298800349236
28.845053672790527,85.43262386322021,33.73090505957603,23.9106318795681,3.8899528086185455
30.863978624343872,86.02962279319763,33.7301408714056,23.91018091082573,4.267751671373844
29.972370624542236,86.24742889404297,33.73049687027931,23.910425642728804,4.316802568733692
28.854104042053223,86.41162300109863,33.73106944680214,23.910753194093704,4.25845044106245
26.066083669662476,85.45694756507874,33.73001886844635,23.910184851884843,3.5975258089601994
25.273797273635864,85.58484959602356,33.73017076730728,23.910238771438596,3.694660499691963
24.291959762573242,85.65414428710938,33.73039951682091,23.910295573472975,3.6828321255743504
27.716938018798828,85.56457781791687,33.7304520881176,23.910399131774902,3.648820038884878
26.686094760894775,85.67580580711365,33.73054910361767,23.910434054136275,3.842591367661953
25.424901008605957,85.72319221496582,33.730760284662246,23.91049059152603,3.88528710603714
25.641841650009155,85.44952607154846,33.73078230559826,23.910633320808408,3.2846330516040325
24.723262548446655,85.49433612823486,33.73072881162167,23.9105586874485,3.4129646830260754
23.665618658065796,85.48311161994934,33.730796934366225,23.910516587495803,3.426934130489826
32.55121564865112,86.77891683578491,33.731064398884776,23.910656688213347,4.061101883649826
31.163822174072266,86.89715361595154,33.73113432407379,23.910727956295013,4.369082845747471
29.65472435951233,86.97610068321228,33.73151713967323,23.9109323656559,4.517176657915115
38.64926195144653,88.42538475990295,33.73041039586067,23.910006996393204,5.100596345961094
36.61331510543823,88.38186931610107,33.730595811605454,23.910254228115082,5.4464655220508575
35.073243141174316,88.40596556663513,33.73142561197281,23.910815142393112,5.81786597520113
37.84492826461792,88.51199793815613,33.72934076845646,23.909190768003462,5.600216783583164
35.958927631378174,88.45218896865845,33.72949528515339,23.90941103816032,5.881314635276794
34.47779989242554,88.46289706230164,33.730267004966734,23.909923125505447,6.227621011435986
32.57846689224243,88.45503854751587,33.729828571081164,23.909615021944045,5.626554064452648
31.250144004821777,88.40965342521667,33.729925919175145,23.909757847785947,5.6864598616957664
29.94896388053894,88.40310597419739,33.73045412659645,23.91008334994316,5.76637426763773
28.861589193344116,88.47196006774902,33.730788136720655,23.910299839973447,5.082408286631107
27.732983589172363,88.399973154068,33.73070536911487,23.91030073046684,5.161285348236561
26.56514859199524,88.35945320129395,33.73096842944622,23.91043520569801,5.207322783768177
32.01081609725952,88.50075554847717,33.73128034889698,23.910438628196715,5.8150429502129555
30.471503496170044,88.39401006698608,33.731137628555295,23.910451284646985,5.9707019329071045
29.005311489105225,88.34740543365479,33.73149690508843,23.910685048103332,6.116367004811764
32.20764493942261,88.83914947509766,33.731289758086206,23.910348477363584,5.618243910372257
30.626152515411377,88.67477941513062,33.73110586583614,23.910373339653013,5.467855468392372
29.208249807357788,88.59931135177612,33.73144111514092,23.910616015195846,5.357863776385784
26.441583395004272,87.42002129554749,33.730932562947274,23.9102358174324,5.0340326353907585
25.22752618789673,87.41345024108887,33.730589079260824,23.910050090551376,4.786200545728207
24.047972917556763,87.40942692756653,33.73055025160313,23.909981225728988,4.415967859327793
27.785709857940674,87.6337890625,33.73118167042732,23.91041508555412,5.196706600487232
26.432040691375732,87.62379050254822,33.730884009599684,23.910272234678267,5.029706232249737
25.103041887283325,87.6209123134613,33.73092448413372,23.910263909101484,4.728661127388477
28.70319938659668,87.62764573097229,33.73232907652855,23.91130437731743,4.761124573647976
27.309834718704224,87.63599634170532,33.73205986320973,23.911186950206755,4.5856718942523
25.9373722076416,87.6498601436615,33.732147507071495,23.911218721866607,4.30268107354641
24.01143765449524,86.30031991004944,33.73563092410564,23.913976444005964,3.5621456280350685
23.054409980773926,86.31201720237732,33.73534490942955,23.91378195166588,3.444524560123682
22.12602949142456,86.30758833885193,33.73524904727936,23.913658255338667,3.225793097168207
22.77201509475708,85.68593454360962,33.73785529077053,23.915643529891966,3.2410741448402405
21.991300344467163,85.6818597316742,33.73759394168854,23.915456486940382,3.1790787391364574
21.223692655563354,85.64997291564941,33.73748568236828,23.915325605869292,3.026598509401083
22.495648622512817,86.18619871139526,33.7402909886837,23.917383536100388,3.070419602096081
21.84508180618286,86.2395224571228,33.7401041996479,23.91726437807083,3.0028919726610184
21.20464301109314,86.25038719177246,33.74010733783245,23.91722729921341,2.8712515011429787
21.262582302093506,85.91780829429626,33.74326485574245,23.919491441249846,2.496478673070669
20.86891210079193,85.94289588928223,33.743116180896756,23.91939962029457,2.5015302784740925
20.473803639411926,85.91907000541687,33.743180178403854,23.919411947727202,2.4791992120444775
20.660621285438538,84.91802632808685,33.74316696047783,23.919419947862625,2.3488254975527525
20.34782862663269,84.87545609474182,33.74311187326908,23.919387983083723,2.367336679250002
20.034419059753418,84.7607090473175,33.74324322104454,23.919443937540052,2.3948459178209305
21.609145164489746,84.42199504375458,33.74372533738613,23.919770580530166,2.476608533412218
21.22914409637451,84.37472522258759,33.74392005503177,23.919930590391157,2.4849515445530415
20.826212525367737,84.22700309753418,33.74432162463665,23.9201882147789,2.5140100941061974
21.69936752319336,85.04364562034607,33.74507872104645,23.92070422172546,2.5220592357218266
21.397881269454956,85.07424783706665,33.745504999160765,23.92104591369629,2.4264032803475857
21.109206438064575,84.99968314170837,33.74613494813442,23.921475896835325,2.3828453794121742
23.725701332092285,84.75315880775452,33.746092520952224,23.921390434503554,2.7168494686484337
23.31999635696411,84.7888811826706,33.746699000597,23.92186173439026,2.6324210725724697
22.885826587677002,84.7188172340393,33.74757300913334,23.922462027072907,2.584076266735792
23.76961088180542,84.48379814624786,33.74569634258747,23.921146421432493,2.718776635825634
23.358208894729614,84.5097154378891,33.74634641349316,23.921643942594528,2.623464673757553
22.935404539108276,84.43292486667633,33.74726016163826,23.922267380952835,2.5768351405858994
24.08941125869751,84.50028765201569,33.74540734529495,23.92095867037773,2.824718862771988
23.65699028968811,84.53317832946777,33.74609422683716,23.921479948759078,2.7306088656187057
23.207318544387817,84.4667181968689,33.747040848135946,23.9221247446537,2.6804255731403828
23.57767915725708,85.08273220062256,33.74715745449066,23.922133663892744,2.9422639906406403
23.20565915107727,85.15333724021912,33.74789958953858,23.922699252367018,2.7589108645915985
22.866825819015503,85.1415376663208,33.74889345526695,23.923377926349637,2.64997361600399
24.443398475646973,85.62335753440857,33.746783232688905,23.92185089111328,3.70859407261014
23.853901386260986,85.7326021194458,33.74734713494777,23.922302174568173,3.420009672641754
23.29554295539856,85.76413130760193,33.7482311964035,23.922914426326752,3.1776486188173294
27.96772575378418,86.80125999450684,33.74523280322552,23.920752201080322,4.341395407915115
26.973914861679077,86.97327613830566,33.74549363732338,23.9210198533535,4.0011870339512825
26.056742429733276,87.09624004364014,33.746248389482496,23.921558079719542,3.683939039707184
25.54841136932373,86.73476910591125,33.7438194078207,23.919893078804016,3.0748008228838444
24.735374212265015,86.92140865325928,33.743913547992705,23.920009293556213,2.9597117602825165
23.96859622001648,87.04792952537537,33.74438522517681,23.92032595157623,2.844152305275202
24.42454195022583,85.88807368278503,33.74323250830173,23.919514050483702,2.936664879322052
23.594541311264038,85.99693989753723,33.743300293087955,23.919587918519973,2.8950787372887135
22.78098201751709,86.03988242149353,33.743663550019264,23.91981344223022,2.823454536497593
24.675971031188965,85.84161853790283,33.74424543380737,23.92019510626793,2.727712582796812
23.879555225372314,85.90985894203186,33.744362372756,23.920307780504224,2.7389765195548534
23.08695650100708,85.9085865020752,33.74481011927128,23.92059746623039,2.7197881639003754
28.295392751693726,86.77520179748535,33.74482258617878,23.920548281669614,2.9983206503093243
27.351593732833862,86.87644982337952,33.74492942392826,23.92067743897438,3.075811680406332
26.42240858078003,86.93844246864319,33.745532663464544,23.92108909368515,3.093154676258564
32.10931396484375,87.72546339035034,33.74461891531944,23.92035296678543,3.843959294259548
30.905449151992798,87.79610991477966,33.74460627138615,23.920429949760436,3.884913608431816
29.871809244155884,87.87003660202026,33.745273948311805,23.920900341272354,3.881270833313465
30.57322120666504,88.09242963790894,33.744933055639265,23.920564292669294,3.9066740348935127
29.345566987991333,88.12371349334717,33.74480767846107,23.920571255683896,3.7863617055118084
28.317715883255005,88.1739752292633,33.745361291766166,23.92096832990646,3.6623475924134254
29.551496267318726,88.67886424064636,33.746921564936635,23.92189981818199,3.6937374845147133
28.17866063117981,88.59651970863342,33.74656489551067,23.92176371216774,3.5342286936938763
27.10942244529724,88.57789158821106,33.746947914958,23.92205356955528,3.3972849920392036
29.291369676589966,89.27835655212402,33.748276005387304,23.922779232263565,3.661308739334345
27.682441234588623,89.0687186717987,33.74766628563404,23.92249103426933,3.5292578898370266
26.516178607940674,88.97847843170166,33.74788487493992,23.922680276632306,3.4287784844636917
31.032501220703125,89.52059435844421,33.74716022253036,23.92198942542076,3.841401807963848
29.26859474182129,89.26339626312256,33.746424294114114,23.921629186868667,3.8706764429807663
27.980303525924683,89.15355086326599,33.74662230014801,23.921810575723647,3.9162750020623207
30.2023503780365,89.49431586265564,33.746574143767354,23.921582906246183,3.8236234560608864
28.493785619735718,89.2549455165863,33.7458859372139,23.921256088018417,3.826462909579277
27.22708559036255,89.15331411361694,33.746091297864915,23.921444511413572,3.839338518679142
36.19595146179199,89.39039349555969,33.746743519902225,23.92162719130516,4.9134324714541435
34.02708625793457,89.11862778663635,33.74592132627964,23.921218490600584,5.050959721207619
32.49588346481323,89.017094373703,33.74622475385666,23.921474348306656,5.252710118889809
34.655667304992676,88.58910036087036,33.74830023646354,23.922738687992094,4.405689969658852
32.92046403884888,88.4765956401825,33.74770196974277,23.922458186149598,4.246181011199951
31.630216598510742,88.44951319694519,33.74806152522564,23.922742872238157,4.106385283172131
29.4877347946167,87.59853982925415,33.750803842544556,23.924465569257734,3.5887898541986942
28.10026741027832,87.58672595024109,33.75052149713039,23.92436707854271,3.3367627896368504
26.97407341003418,87.57975721359253,33.7509273904562,23.924664249420164,3.139370981603861
24.48725199699402,85.6955075263977,33.753889482617375,23.926454037427902,3.030032407492399
23.389479875564575,85.5647337436676,33.754099730253216,23.92663981795311,2.8583733774721622
22.53085708618164,85.41612720489502,33.754619762301445,23.926985186338424,2.740385517477989
34.84974479675293,87.13263368606567,33.75516820967197,23.92717191815376,4.778309151530266
32.9163703918457,86.78381562232971,33.75494449734688,23.927081559896468,4.835681267082691
31.306391716003418,86.49665689468384,33.75522639751434,23.92727841258049,4.8125887885689735
36.161404609680176,87.84762763977051,33.75506077110767,23.927077894210814,6.08045457303524
33.903079986572266,87.4407308101654,33.75468041241169,23.926887332201,6.1696061715483665
32.07356071472168,87.14592099189758,33.75492804467678,23.927063245773315,6.245033912360668
35.5630669593811,88.07100486755371,33.7547133821249,23.92686814546585,5.939547739923
33.34255790710449,87.69562435150146,33.75429345011711,23.92666017770767,5.785415604710579
31.563466548919678,87.4346911907196,33.75453867912292,23.926841384172437,5.60035290569067
