20.06618356704712,82.74145305156708,33.68582987457514,23.879879351854324,2.2097470089793205
17.35262429714203,81.57397955656052,33.68569854825735,23.87997234404087,2.1923636123538017
18.22541630268097,81.82356071472168,33.68521084621549,23.87961610108614,2.0004342906177044
18.741541862487793,82.07811629772186,33.68517009675503,23.879530620872973,1.9134801756590607
17.090819239616394,81.43894964456558,33.68584492042661,23.880117852985858,2.1311914771795273
17.91813826560974,81.69782143831253,33.685306775420905,23.879716311097145,1.9485417604446413
18.381374835968018,81.96007442474365,33.685241443514826,23.87960308164358,1.8750099223107102
16.08282721042633,80.87728416919708,33.685629481375216,23.880215274393557,2.1580993980169296
17.153315901756287,81.13270485401154,33.68494371563197,23.879695479273796,1.9325761627405884
17.64898931980133,81.39913010597229,33.684793692976235,23.879521984159947,1.7730569783598187
16.872767567634583,80.53300762176514,33.68581512376666,23.880626124441623,1.9993248619139197
17.71924889087677,80.70111918449402,33.685086653232574,23.88008839249611,1.7829471211880448
18.144323587417603,80.90843123197556,33.68502137228847,23.879939355552196,1.7075702585279944
21.324363708496094,81.10528910160065,33.68662817239761,23.881118308007718,1.9399768803268673
21.486717224121094,81.23086386919022,33.6863227814436,23.88086165368557,1.8531194087117913
21.733816623687744,81.43326443433762,33.68660664767027,23.880877683460714,2.0926167853176594
25.898526668548584,83.06257712841034,33.68642041116953,23.88043728441,2.3167005963623524
26.464686155319214,83.22724258899689,33.68676975682378,23.880619508326053,2.357349306344986
26.683029890060425,83.36628830432892,33.68734738662839,23.880844727158546,3.008299808949232
27.907016038894653,84.99842536449432,33.685415804535154,23.879332700669764,2.8818841129541397
28.67869472503662,85.29278993606567,33.68581694230438,23.87957604318857,3.071052100509405
28.989144325256348,85.5421531200409,33.68641136407852,23.87983566761017,3.858268879354
33.84944772720337,86.35959386825562,33.68484095618129,23.878724511563778,4.021091036498547
34.38726043701172,86.7035059928894,33.68531012952328,23.87900644212961,4.225568234920502
34.69345664978027,86.99740958213806,33.68570145040751,23.87916491240263,4.694392219185829
39.98056745529175,87.75246715545654,33.68471457585692,23.878486224114894,4.7252252176404
40.27294731140136,87.9405107498169,33.68507449477911,23.878746091723443,4.6809781566262245
40.51466798782348,88.09962868690491,33.68500856608153,23.87868862450123,4.7233879044651985
46.492792129516594,88.35759854316711,33.68470143303275,23.878533594608307,5.21493623405695
46.4176115989685,88.30267977714539,33.685459318012,23.879124472737313,5.0767354145646095
46.76586008071899,88.3132655620575,33.68569188967347,23.879305690824985,5.224825873970985
45.457423686981194,87.38702583312988,33.684219127595426,23.87842050999403,6.377850867807865
46.0025463104248,87.42044973373413,33.6848958529532,23.878930776119233,6.159151591360569
46.59440851211547,87.49337649345398,33.685100006610156,23.87907375663519,6.120465084910393
44.26945543289184,87.19979405403137,33.68412586316467,23.878377429246903,7.635784432291985
45.195375442504876,87.23241472244263,33.684612938910725,23.87877239704132,7.13017663359642
45.93712425231933,87.29461908340454,33.68463469296694,23.878810286819935,6.681658983230591
40.379696846008294,86.37133121490479,33.683871520012616,23.87825643390417,5.937072396278381
42.13806009292602,86.4998984336853,33.68385197609663,23.878349755108356,5.172375947237015
43.19146251678466,86.6263427734375,33.683547965139155,23.878184302151205,4.792160414159298
36.00833034515381,85.9192430973053,33.68386529326439,23.87819873958826,4.771014213562012
37.622536182403564,86.08027148246765,33.68374893903732,23.87820726186037,4.408295400440693
38.57841110229492,86.22082281112671,33.68355923041702,23.878080185055733,4.396935574710369
32.638453006744385,85.59018540382385,33.68388548493385,23.878154050409794,5.4239262491464615
33.680814266204834,85.73384881019592,33.68390767619014,23.878208257853984,5.406934455037117
34.354926109313965,85.84361410140991,33.684021923542026,23.87824170589447,5.463154561817646
33.86210060119629,85.16020011901855,33.68422240659595,23.878353358209132,5.926192685961723
34.498525619506836,85.2858784198761,33.68438396140933,23.878484556674955,5.834311939775944
34.83994102478027,85.37894535064697,33.68456983715296,23.878561837375162,5.716447293758392
30.06451940536499,85.1604483127594,33.68425578802824,23.878364454507828,4.345179334282875
30.98844861984253,85.33398723602295,33.684347691237924,23.878472565412522,4.109978102147579
31.57518243789673,85.47605061531067,33.68466436222196,23.87862552911043,4.260680697858334
29.82144570350647,84.98441994190216,33.684265980422495,23.87840825587511,3.635567244142294
30.59604024887085,85.16239809989929,33.68441319480539,23.87853698939085,3.7624090760946274
30.95978355407715,85.30059838294983,33.68478784441948,23.878704129457475,4.406587839126587
31.217926502227783,85.09304404258728,33.684287396520375,23.87841433286667,4.047501407563686
31.995116233825684,85.27982950210571,33.68451799273491,23.87858415335417,4.170399218797684
32.37401580810547,85.4287679195404,33.68489870682359,23.878755149543284,4.685435988008976
28.404885292053223,85.17464470863342,33.68431493610144,23.87840737968683,3.6743219792842865
29.37488293647766,85.3858733177185,33.6844894567132,23.87854675710201,3.7905095741152763
29.98795247077942,85.55893874168396,33.6849154303968,23.87874574840069,4.373560458421707
27.81118130683899,85.25200176239014,33.68424856618047,23.878368628025054,3.8702305257320404
28.58880376815796,85.46632027626038,33.684427276402715,23.878498313724993,4.192590810358524
29.099061250686646,85.63653683662415,33.68486669331789,23.87869991749525,4.941210433840752
40.81048107147216,85.35355305671692,33.68475619569421,23.878715093433858,4.977460823953152
40.722037315368645,85.5394995212555,33.68540408328176,23.879128953814508,4.938030004501343
40.60249423980712,85.7241005897522,33.685552122443916,23.879183533191682,4.928120248019695
40.47471141815185,85.25195455551147,33.68453582137823,23.878586117625236,4.958574719727039
41.23847579956054,85.40951824188232,33.68489059045911,23.87886576205492,4.502751402556896
41.60328006744384,85.56578087806702,33.68487199604511,23.878846015632153,4.318838030099869
27.980435848236084,84.70558893680573,33.68435916438699,23.878431639373304,4.348235376179218
29.152719736099243,84.80688059329987,33.68427208915353,23.87843681782484,4.039776310324669
30.11821484565735,84.89309108257294,33.68444625169039,23.878521946668624,4.059016466140747
29.48008155822754,83.47951006889343,33.685199536681175,23.8790312319994,4.814344629645348
30.351954460144043,83.53117978572845,33.68509041234851,23.879019147753716,4.737491965293884
30.924180507659912,83.56942522525787,33.68522982552648,23.879079301655292,4.878527544438839
27.98196053504944,83.03462314605713,33.687358854413034,23.880336710512637,3.907557152211666
28.42105484008789,83.14465522766113,33.68719343185425,23.88028505563736,4.15317340195179
28.623474597930908,83.22708237171173,33.68735997289419,23.880344064235686,4.85828323662281
30.384732246398926,83.67554700374603,33.68911863163114,23.88131612986326,4.180565796792507
30.755046367645264,83.76702213287354,33.68922272413969,23.881430124640463,4.313456512987614
30.78594422340393,83.8248999118805,33.689472484737635,23.881542380452156,4.85511789470911
30.875200986862183,84.13278603553772,33.689880538582806,23.88171828866005,3.7937332540750504
31.327961444854736,84.23886132240295,33.690085480809216,23.881894710063936,3.952425479888916
31.341761112213135,84.30591976642609,33.69037784159184,23.882027298808097,4.593870736658573
30.33194398880005,85.0987982749939,33.69013776510954,23.881741750836373,3.8337186202406883
30.975087642669678,85.27210116386414,33.69037897616625,23.881937292814253,3.9935823008418083
31.18444061279297,85.39632749557495,33.69069523409009,23.882083909511564,4.604908362030983
31.764970779418945,85.87118721008301,33.69011402755976,23.881656875014304,3.8091341629624367
32.37167692184448,86.09242796897888,33.69030778899789,23.88181976288557,4.0608004704117775
32.52104616165161,86.25618362426758,33.690518392026426,23.88189451247454,4.783836513757706
35.884538650512695,87.14215230941772,33.69150113329292,23.882344856262208,4.853886760771275
36.019941329956055,87.33504390716553,33.691636622399095,23.882463780939577,5.252366125583649
35.99507188796997,87.48314547538757,33.691526120752094,23.882365884780885,5.697716757655144
35.73090887069702,88.32710146903992,33.6945832502842,23.883993626236915,5.365575797855854
36.00626802444458,88.3526496887207,33.69432546854019,23.883951940238475,5.371937997639179
36.18915891647339,88.36714935302734,33.69389249563217,23.883717426657675,5.362575076520443
37.64894342422485,89.204594373703,33.69655220627785,23.884946244955064,7.6394054144620895
37.140666007995605,88.96621322631836,33.69606830358505,23.884825538396836,8.325882613658905
37.094021797180176,88.81601023674011,33.69539659529924,23.884493595361707,8.165869399905205
38.070114612579346,89.2964596748352,33.698024108707905,23.885710243582725,10.285495802760124
37.83799743652344,89.0039472579956,33.69740163773298,23.885564463734628,10.001554474234581
37.94093704223633,88.82379293441772,33.696597213745115,23.885197521448134,8.72760845720768
35.52686309814453,86.95442342758179,33.698047824800014,23.886145796775818,7.224735900759697
36.28282165527344,87.03190636634827,33.69787681788206,23.88616351187229,6.0369032099843025
36.639305114746094,87.07658410072327,33.69748815506697,23.885986965298653,5.034581817686558
38.667176723480225,85.60255146026611,33.69777725696564,23.88619931221008,5.125824198126793
38.83006191253662,85.61412286758423,33.69786445826292,23.886359726190566,4.799419477581978
38.596046924591064,85.6058874130249,33.69753997802734,23.886191431879997,4.63183505833149
35.39749240875244,85.21926021575928,33.69744703412056,23.885989136099816,5.302331991493702
35.653401374816895,85.2375271320343,33.697446508407594,23.88607303202152,5.2670763656497
35.495699405670166,85.22020363807678,33.69723732292652,23.885956245064737,5.346350394189358
34.69286298751831,85.22706437110901,33.697323708832265,23.885936139225958,5.3307265266776085
34.74094009399414,85.2649564743042,33.697336116731165,23.886018849611283,5.456140585243702
34.4633207321167,85.2646496295929,33.69717103749514,23.885921458601953,5.664764814078808
27.080126762390137,84.83851563930511,33.697031626999376,23.885789969563483,4.314753361046314
27.833947896957397,84.93056261539459,33.697105843722824,23.885932752490042,4.0705127492547035
28.39851474761963,84.99309134483337,33.69730494141579,23.88607505261898,4.172028325498104
22.91569209098816,85.07207918167114,33.6969260391593,23.885843166708945,2.988222636282444
23.41364598274231,85.22672748565674,33.69700090765953,23.88595234155655,3.059624884277582
23.874605655670166,85.34134650230408,33.697318454384806,23.886129959225656,3.5711694173514843
24.100879192352295,85.31490135192871,33.69714846938849,23.886170576810837,3.0557060092687607
24.40980291366577,85.4800431728363,33.69713826626539,23.88621524095535,3.3552720434963703
24.59460711479187,85.58996224403381,33.69741893529892,23.886334550976752,4.2551053911447525
23.465152740478516,85.35494494438171,33.69675309032202,23.88599443435669,3.34140669927001
24.150458335876465,85.54594111442566,33.69694440156221,23.886157920360564,3.354300245642662
24.762153387069702,85.69572138786316,33.69734960824251,23.88637928843498,3.696876674890518
31.709877014160156,86.08042740821838,33.69702781021595,23.886190373301506,3.2526877745985985
32.059603691101074,86.31201720237732,33.69709856420756,23.88629703938961,3.3224525339901447
31.867960453033447,86.48936557769775,33.697086148262024,23.88622646868229,3.8864163160324097
31.22836685180664,86.9484703540802,33.69659882575274,23.88565758109093,3.615995164960623
31.939955711364746,87.19680571556091,33.696688164770606,23.885788896679877,3.561293188482523
32.217756271362305,87.37466335296631,33.69667998671532,23.885754099488256,3.9026691615581512
36.678462982177734,87.43190884590149,33.69688265174627,23.885695536136627,3.9499608650803566
36.79590559005737,87.61030077934265,33.69689590185881,23.885784327983856,3.969205714762211
36.6568717956543,87.74967551231384,33.69653551757336,23.885553913712503,4.2339078933000565
36.25612831115723,88.49629020690918,33.69720177024603,23.885626197457313,4.06584469974041
36.55418252944946,88.50529742240906,33.69687447369099,23.885573694109915,4.065487965941429
36.631723403930664,88.50789093971252,33.696311553120616,23.885262427330016,4.338459730148315
31.857996940612793,88.74406480789185,33.69731819421053,23.8855845785141,4.068030700087547
32.79816246032715,88.70269298553467,33.69696166157723,23.88553058028221,4.141647279262543
33.44600057601929,88.64866614341736,33.696579664051534,23.885336712002754,4.544270992279053
24.927102088928223,88.73640942573547,33.69839246183634,23.886308188438417,3.176693584769964
26.22754192352295,88.71590304374695,33.698136689066885,23.886313633322715,3.277206853032112
27.43110156059265,88.66932845115662,33.697983406186104,23.88626436293125,3.8318927064538
23.2735333442688,88.820565700531,33.700389463007454,23.887755370736123,2.7415861412882805
24.543399572372437,88.81356835365295,33.70008462995291,23.88772994339466,2.7717690393328667
25.803740978240967,88.77979898452759,33.699904149472715,23.887660424113275,3.250075973570347
22.721901893615723,88.88068795204163,33.70113761156797,23.888415539264678,2.4520084857940674
24.136311769485474,88.90194749832153,33.70085102826357,23.888389389514924,2.4456833340227604
25.50592279434204,88.88725543022156,33.70064487099648,23.88829273164272,2.874139066785574
23.2935950756073,89.18163251876831,33.70158344566822,23.888789952397346,2.2590548116713762
24.720641136169434,89.16167259216309,33.70112558454275,23.888682987689972,2.2715578451752663
26.04425287246704,89.11977076530457,33.70077746063471,23.888493418097497,2.7486098408699036
23.471868991851807,89.28274464607239,33.70186064392328,23.888972024321557,2.3531430158764124
24.913244009017944,89.24520659446716,33.70139180451632,23.8888626652956,2.366191962733865
26.24285078048706,89.18919277191162,33.70102675050497,23.8886657088995,2.83821490034461
20.540024995803833,85.49833798408508,33.70125057280064,23.88905595600605,2.8480089865624905
21.92289447784424,85.68900299072266,33.70185385793447,23.889427946209906,2.729869917035103
23.168225049972534,85.85163998603821,33.70244606554508,23.889778879284858,2.781850289553404
19.993008136749268,83.45320510864258,33.70134090155363,23.889328157305716,2.757287122309208
20.890469908714294,83.5530995130539,33.701520059704784,23.889466341137886,2.4868490397930145
21.850307941436768,83.69218456745148,33.7019719851017,23.8897535020113,2.3885484263300896
20.780943989753723,83.1995507478714,33.70180039614439,23.889723368287086,2.444374416023493
21.365744829177856,83.33395445346832,33.70170010298491,23.889711278676987,2.215476877987385
22.081058979034424,83.4922194480896,33.702023542523385,23.889897406101227,2.289223460480571
20.04481291770935,82.67254030704498,33.701957350969316,23.890031482577324,2.051687616854906
20.495229721069336,82.86907362937927,33.701735180914405,23.88990599811077,1.9034363087266686
21.021114349365234,83.0711977481842,33.702030685245994,23.890035833120347,2.0357961151748896
18.96247899532318,81.99365264177322,33.7016317281127,23.88996415376663,2.6655834019184113
19.33810567855835,82.23634481430054,33.70144227027893,23.88976616382599,2.522617470473051
19.830506205558777,82.48429429531097,33.70177467107773,23.889896394014357,2.435108222067356
18.05005705356598,81.52581316232681,33.70176028370857,23.89022932052612,3.1758235432207584
18.371490597724915,81.78834170103073,33.701330947875974,23.889847432971,2.6745548881590366
18.879801392555237,82.06964409351349,33.701555590927605,23.88992021203041,2.164935762062669
19.301295042037964,81.43069899082184,33.70135547399521,23.89000837802887,9.22817973792553
19.201173543930054,81.5909970998764,33.70065919667483,23.889369554519654,11.381323024630545
19.645315170288086,81.74938976764679,33.70041225373745,23.88909388065338,11.054382532835007
22.14246368408203,81.29670602083206,33.701496000289914,23.890112288594246,19.965701460838314
22.92331314086914,81.37162673473358,33.7006807294488,23.889521203041078,20.798334240913388
23.666932344436646,81.44347792863846,33.70022750318051,23.88916375756264,21.0984613597393
17.675665974617004,81.1416135430336,33.700963353812696,23.88967796564102,10.85128901898861
18.281400561332703,81.25395876169205,33.70039080142975,23.88928221821785,7.597341001033783
18.52854585647583,81.42710196971893,33.70030022591352,23.889235746264458,4.25098417699337
18.862882614135742,81.2644733786583,33.70069029957056,23.889644430875776,3.5914081931114197
18.72132933139801,81.46485513448715,33.70023758560419,23.889336357712747,2.4932823181152344
18.929638624191284,81.72391664981842,33.70044923335314,23.88943752527237,1.8289823774248364
17.730446219444275,81.23190796375275,33.70095418334007,23.889987421035766,2.4876171573996544
17.77200496196747,81.45352512598038,33.70046264976263,23.889612764716148,1.8758953865617516
18.048004269599915,81.7287877202034,33.70076724678278,23.889720898866653,1.5610330076888206
17.612009406089783,81.37090200185776,33.70129192709923,23.890312983989716,1.849103555083275
17.942556500434875,81.62811762094498,33.70098955363035,23.89001107096672,1.5832263594493272
18.263994812965393,81.9140899181366,33.70143544405699,23.890150817632676,1.5036251014098527
16.740824937820435,81.30120819807053,33.70154763817787,23.89056087374687,1.7908819336444142
17.362200379371643,81.57915389537811,33.70118259757757,23.89017168879509,1.5700319865718486
17.780987977981567,81.87204110622406,33.70160868525505,23.890282599925996,1.495555507950485
16.897586941719055,81.27954775094986,33.70195992320776,23.890909725427626,1.7551508862525227
17.482754349708557,81.55137550830841,33.70145985752344,23.890430276989935,1.5568474205210807
17.8849778175354,81.84072399139404,33.701827561557295,23.89048926949501,1.5065308138728144
17.275514960289,80.71597254276276,33.70142362624407,23.89086492180824,1.8619776554405691
17.887637972831726,80.94468289613724,33.700698509812355,23.890263021588325,1.6260914122685792
18.29707956314087,81.20961219072342,33.7010209864378,23.89028953075409,1.5501485196873548
18.594463229179382,80.95094710588455,33.70196715176105,23.8912175822258,1.9593425970524552
18.86265254020691,81.13697564601898,33.70129335939884,23.890670370459556,1.733722969889641
19.14420223236084,81.37838160991669,33.70158023506403,23.89065941810608,1.7146679703146221
17.999048590660095,81.21670681238174,33.70200661510229,23.891060683727265,2.039099423214793
18.339817881584167,81.41999554634094,33.70151305377483,23.8906074655056,1.7808490470051768
18.685292959213257,81.67280268669128,33.70185870468617,23.89064764678478,1.7106237020343544
18.151684165000916,81.84483796358109,33.70248183816671,23.8910423964262,2.1421694234013557
18.42761790752411,82.05323255062103,33.70209705382585,23.890674856901168,1.8701350912451746
18.786009907722473,82.28987777233124,33.70238316237926,23.890714160203935,1.793259544298053
19.788660764694214,82.53384006023407,33.70290895313025,23.891059644818306,2.0094353649765253
19.996724486351013,82.71878445148468,33.70251449406147,23.890772097706794,1.7968279719352724
20.367318749427795,82.91707694530487,33.70270869940519,23.89079182624817,1.8700907509773972
20.649914503097534,83.02294409275055,33.70247805893421,23.890575214624405,2.0057992953807116
21.093241930007935,83.18153631687164,33.702354736328125,23.89049681901932,1.8788911625742915
21.576947927474976,83.3493846654892,33.70266155153513,23.890606870055198,2.083817882463336
20.912837743759155,83.83630108833313,33.70228172391653,23.890200595855713,2.059657968580723
21.37221908569336,83.98309087753296,33.702253528535365,23.890203092098236,1.9750736691057684
21.81424355506897,84.12778568267822,33.70258804827929,23.89033965229988,2.267805937677622
25.5554518699646,84.75977420806885,33.702258670330046,23.89002667427063,2.304277190938592
26.01742720603943,84.90289723873138,33.70219506978989,23.890052090883255,2.3707866705954075
25.955631494522095,85.00090622901917,33.70233800470829,23.890048248171805,3.0834807865321636
28.17253088951111,85.59832859039307,33.701492132544516,23.889260930418967,3.0076146721839905
28.639613151550293,85.76383018493652,33.70164900422096,23.88941362142563,3.0873671397566795
28.595919370651245,85.87976169586182,33.701827561557295,23.889450716376306,3.7012647688388824
25.709625244140625,84.33480250835419,33.70122636049986,23.88906651854515,3.195340134203434
26.384774208068848,84.4115104675293,33.70149263679981,23.889314379692077,3.1150470338761806
26.788986682891846,84.48444330692291,33.7018781721592,23.889532686471938,3.455434277653694
21.626877546310425,84.02551805973053,33.70143687903881,23.889145879745485,3.0130451396107674
22.1593759059906,84.13757681846619,33.70163970768452,23.88932109951973,2.900741718709469
22.766875982284546,84.25765895843506,33.70207596093416,23.889584950208665,3.051671799272299
21.239681005477905,84.06908929347992,33.7018057256937,23.889448727965355,3.061007060110569
21.546938180923462,84.18027651309967,33.70186049371958,23.889517506957052,2.9783365167677402
22.007806062698364,84.2953085899353,33.702229790985584,23.889726579785346,3.133330311626196
20.232452511787415,84.01738703250885,33.705060720443726,23.891790047883987,2.4318570494651794
20.513198137283325,84.14659583568573,33.70497360765934,23.891773688197134,2.224580965936184
20.927802681922913,84.28925466537476,33.70529039263725,23.89193965256214,2.312285093590617
20.114996790885925,84.15375053882599,33.707227146029474,23.893381119966506,2.1375027988106012
20.4767963886261,84.2840325832367,33.70721560716629,23.89339429497719,2.02693485096097
20.864315390586853,84.42261016368866,33.707563838362695,23.893549913167952,2.238011959940195
19.638579845428467,83.28509140014648,33.70815267443657,23.89424000620842,1.9672640822827818
20.000264406204224,83.43480050563812,33.70791830569506,23.894094156622884,1.8405152894556525
20.418271780014038,83.59822857379913,33.70818291902542,23.894187037944793,1.987989762797952
30.644604921340942,83.07209646701813,33.70942661374807,23.895280705094336,2.632752325385809
30.623879194259644,83.12814927101135,33.70924588382244,23.895195668339728,2.7570016346871853
29.793870210647583,83.16688859462738,33.708881588876245,23.894840500950814,3.458918634802103
23.422596216201782,83.04599964618683,33.70877364873886,23.89469628572464,2.6836452297866344
23.668012380599976,83.13668119907379,33.70862259477377,23.894642419815064,2.546410843729973
23.928028106689453,83.24929714202881,33.70879031062126,23.894681698083875,2.840121280401945
22.19699001312256,83.05770194530487,33.70891420185566,23.894730335474012,2.916805971413851
22.3212251663208,83.1555746793747,33.70873136103153,23.89463976085186,2.708466224372387
22.651642322540283,83.28205049037933,33.70892067939043,23.894706733822822,2.827145926654339
21.255240201950073,83.53072130680084,33.709278132021424,23.894924053549765,2.3543124590069056
21.35333275794983,83.63066184520721,33.709004517197606,23.894798613786698,2.1173095367848873
21.646909475326538,83.74887716770172,33.70916836261749,23.894852660298348,2.2531851325184107
19.853384852409363,83.96641647815704,33.708850180208685,23.89462175965309,2.000287188217044
20.122543931007385,84.08566498756409,33.708779495954516,23.894586987495423,1.8708124328404667
20.448159337043762,84.21415603160858,33.70909651696682,23.894711930155754,2.0505568142980337
18.435126900672913,83.21318173408508,33.70848525226116,23.89448629915714,2.124433232471347
18.75630831718445,83.36260902881622,33.70835621386767,23.894350075125693,1.9741104207932951
19.120455741882324,83.52587902545929,33.708703044950965,23.894484094381333,2.003163354471326
18.134262323379517,82.52771747112274,33.708401006758216,23.894582052230835,2.302940109744668
18.472795844078064,82.72380876541138,33.70803991705179,23.894275608062742,2.0408566892147064
18.925410270690918,82.93488824367523,33.70829145729542,23.89435637831688,1.915235681459308
25.706796407699585,83.58535325527191,33.71064916729927,23.896069712638855,2.6195372492074966
25.548088312149048,83.64970803260803,33.710147602260115,23.895787124037742,2.6230584867298603
25.027117490768433,83.6986973285675,33.70988056689501,23.895501556396482,3.2282231785357
29.883097171783447,84.07638311386108,33.71275749355554,23.89736776947975,3.1812563575804234
29.48982334136963,84.04475915431976,33.71251888155937,23.897268999814987,3.0301562920212746
28.70681858062744,84.02498126029968,33.71221120804548,23.896995092630387,3.3286355286836624
29.51656198501587,84.1089608669281,33.71347671449185,23.89768359065056,3.377509567886591
29.033478260040283,84.06418943405151,33.713245167434216,23.897609139680863,3.2129548713564873
28.29951024055481,84.04068291187286,33.71300595998764,23.897403426766395,3.469780072569847
36.625576972961426,84.30593264102936,33.7144035705924,23.898049397468565,4.063810244202614
35.82832431793213,84.19003474712372,33.71444719403982,23.898179920911787,3.6921194419264793
34.79411220550537,84.11072218418121,33.71393389970064,23.897860963344574,3.591097056865692
33.47277021408081,84.12759399414062,33.71377388715744,23.897307307124137,7.00492887198925
32.16039991378784,84.01285088062286,33.713541562259195,23.897213338613508,7.065074056386948
31.098161697387695,83.93990767002106,33.71308742403984,23.896943474411962,6.661553144454956
33.88484573364258,84.14602863788605,33.71417994946241,23.89735017597675,10.53334465622902
32.77070617675781,84.02114033699036,33.7137499833107,23.897180760502813,9.662195354700089
31.754120349884033,83.94193971157074,33.71314088582992,23.89685472369194,8.355639040470123
26.54797649383545,84.53612160682678,33.715014875531196,23.89806238114834,5.359596148133278
25.899320602416992,84.5156899690628,33.71443687826395,23.897870753407478,4.284868523478508
25.400428533554077,84.51292979717255,33.71416642576456,23.897769644856453,3.7196756191551685
27.917768716812134,85.05364274978638,33.714546328485014,23.89796762049198,3.2458060644567013
27.13250970840454,85.03671622276306,33.7141921132803,23.897869562506674,3.1462622471153736
26.14266610145569,85.005126953125,33.71399673849344,23.897718693614006,3.5947173684835434
20.386682510375977,83.16508185863495,33.71361106097698,23.897676159143447,3.203834354877472
20.440101385116577,83.26139390468597,33.71353931188583,23.897639169692994,2.960803586989641
20.80340838432312,83.40122532844543,33.713804721832275,23.897785857915878,2.7907005734741688
20.393526315689087,82.50260484218597,33.71342765688896,23.897910156846045,2.8161671422421932
20.359018206596375,82.67977547645569,33.71288195073605,23.897544679045676,2.5370821207761765
20.67905342578888,82.87400460243225,33.71291992008686,23.897505647540093,2.449550073593855
21.478813648223877,82.3352382183075,33.7134749469161,23.898140562176703,2.9101009517908096
21.326966047286987,82.51271069049835,33.7128228777647,23.89769396185875,2.672073509544134
21.523438453674316,82.7022956609726,33.71274651259184,23.897550422549248,2.704135127365589
26.733885765075684,82.52088713645935,33.71392501354217,23.8985542678833,3.2294286638498306
26.249966382980347,82.6241385936737,33.71335101276636,23.898178045153617,3.1172573417425156
25.625113010406494,82.73232638835907,33.712958404421805,23.89780580461025,3.4261442199349403
27.73265814781189,82.814297914505,33.7141116014123,23.8985290569067,3.568018324673176
27.193161010742188,82.85852324962616,33.713674551546575,23.8982745295763,3.2502330504357815
26.60068964958191,82.92912435531616,33.71334788799286,23.89798653721809,3.3117307387292385
24.462088108062744,82.99500977993011,33.71390937894583,23.898187363147734,3.423662170767784
24.221523761749268,83.04854130744934,33.713581328690054,23.898027861118315,3.0494557917118073
24.175066709518433,83.13980829715729,33.713541948497294,23.897958652973173,3.034759633243084
24.707985877990723,83.30220210552216,33.714086198210715,23.898160786032676,4.342513553798199
24.035019636154175,83.32027232646942,33.71369642227888,23.8979197627306,4.3326393365859985
23.737289667129517,83.37180435657501,33.713583061397074,23.89779088437557,4.370980843901634
24.551323413848877,83.1402896642685,33.714281173348425,23.89827376782894,5.276241473853588
23.929574251174927,83.1607027053833,33.713718840181826,23.897941853404046,4.818725012242794
23.754263877868652,83.22699761390686,33.713494658470154,23.897774474620817,4.318270407617092
26.287160873413086,83.81593632698059,33.71439241528511,23.8982712572813,4.463720232248306
25.576929807662964,83.78278172016144,33.71391013532877,23.898043439388275,3.867300882935524
25.06997561454773,83.78649246692657,33.71365928709507,23.897871851325036,3.598109859973192
27.854528188705444,84.17183291912079,33.71408303588629,23.897992600798606,4.051024824380875
27.052671670913696,84.11357462406158,33.7137562596798,23.8978654640913,3.7117486856877804
26.306215286254883,84.08512461185455,33.713554477095606,23.897713474035264,3.701159995049238
26.168458223342896,84.92783105373383,33.71397786647081,23.897753186821937,3.9852158203721046
25.587955474853516,84.89471936225891,33.713777076303955,23.89771076321602,3.6831863448023796
25.077056646347046,84.87140130996704,33.71374162822962,23.89767048358917,3.715104464441538
23.59602189064026,85.00367426872253,33.71393600523472,23.897717447280883,3.5811502523720264
23.349181175231934,85.01176881790161,33.71379211813211,23.897696112990378,3.33680771663785
23.24434733390808,85.02797794342041,33.71387620538473,23.897726096510887,3.415898349136114
21.719163417816162,84.96949434280396,33.71624737203121,23.89941152870655,3.133856527507305
21.579591989517212,85.00382661819458,33.715989767313005,23.899288713932037,2.909221690148115
21.65808892250061,85.05301904678345,33.71603778421879,23.89927541911602,2.997666358947754
22.810539960861206,85.99341797828674,33.71770668685436,23.900439156293867,2.9181224331259727
22.65525197982788,86.05637192726135,33.717363739609716,23.900261919498444,2.820290870964527
22.52006506919861,86.09503149986267,33.71728523135185,23.900136041641236,3.1745483204722404
26.71745991706848,86.78929734230042,33.718130347132686,23.90068809390068,3.8179633244872093
26.02685785293579,86.83350014686584,33.717610293626784,23.900373499393464,3.932252250611782
25.299960136413574,86.83448648452759,33.71724636077881,23.900053930282592,4.376391865313053
27.619707345962524,87.911123752594,33.71847028493881,23.900690118074415,4.996366374194622
27.152526140213013,87.94292759895325,33.717860436439516,23.90037794470787,4.491357713937759
26.780417919158936,87.93034338951111,33.71737580418587,23.900064573287963,4.140046000480652
26.851911306381226,87.61205101013184,33.71837752342224,23.90065082192421,4.127781264483929
26.880593061447144,87.67667078971863,33.718024442791936,23.90053649544716,3.4578076973557472
26.772465467453003,87.68822932243347,33.71772959291935,23.900356476306914,3.2063693776726723
30.462026357650757,88.55421018600464,33.71857982099056,23.90064303278923,3.3696763440966606
29.9302921295166,88.50180983543396,33.71782808899879,23.900318499803543,3.1564982272684574
29.22851538658142,88.43753051757812,33.717111928462984,23.899856314063072,3.3826788552105427
33.51007556915283,88.87807011604309,33.71856835186482,23.90039525747299,4.889213129878044
32.49994611740112,88.7439775466919,33.717824929356574,23.900076471567154,4.629015721380711
31.7778000831604,88.63630223274231,33.71702887654305,23.899615119099618,4.421924710273743
32.60212755203247,88.86567544937134,33.71866721272468,23.900352284908294,5.781864359974861
31.855348110198975,88.73232388496399,33.717986173033715,23.900106011629102,5.079300947487354
31.39635419845581,88.61765050888062,33.71730520844459,23.89975704729557,4.453399762511253
37.474552154541016,89.26464009284973,33.71893604516983,23.90030269265175,5.280002601444721
36.447049140930176,89.0288610458374,33.71816151976586,23.900097303390503,4.514213487505913
35.76712942123413,88.87456822395325,33.71714371800422,23.89958257317543,3.9649007692933083
36.308547019958496,89.32714557647705,33.71839769363403,23.89976586461067,5.589177146553993
35.255433082580566,89.06174921989441,33.71771140217781,23.8996355843544,4.9785052090883255
34.58854293823242,88.87828040122986,33.716888237595555,23.899257299900054,4.483656756579876
33.926223278045654,89.59327507019043,33.71863033771515,23.89984638094902,6.618594214320183
32.6498589515686,89.26752185821533,33.71790423691273,23.89970994234085,6.321299843490124
32.061131954193115,89.03505301475525,33.71726020634174,23.899457727074623,5.786622934043407
35.625749588012695,89.4246985912323,33.720491495728496,23.901188415288924,7.461470350623131
34.451969623565674,89.12523317337036,33.719840604066846,23.90108814716339,6.791096463799477
33.82907247543335,88.91863298416138,33.719132377505304,23.90080612182617,5.837649613618851
32.64262533187866,89.09819149971008,33.723273820877075,23.903513157367705,5.448485895991325
32.00029945373535,88.89930963516235,33.72274566709995,23.903460249900817,4.527993336319923
31.5112361907959,88.73759961128235,33.72222751259804,23.9032648062706,3.9692724347114563
29.87961983680725,87.99076175689697,33.724504402279855,23.904851640462873,3.834015004336834
29.421930074691772,87.92274808883667,33.72411071300507,23.90474361896515,3.5164070911705494
28.803640365600586,87.83541178703308,33.723740632534025,23.90452208638191,3.6042113825678825
29.201115131378174,87.2725920677185,33.72521615862846,23.905594823360442,3.823650613427162
28.57903814315796,87.22172093391418,33.724780315756796,23.905393064022064,3.619810774922371
27.80674910545349,87.14930486679077,33.724388407468794,23.905110605955123,3.7716276608407497
30.37717318534851,86.93668508529663,33.72522237062454,23.905730543136595,3.819206193089485
29.668453693389893,86.88436341285706,33.72476912021637,23.905497469902038,3.5144780799746513
28.80529022216797,86.82294154167175,33.724305006861684,23.905157580375672,3.548752687871456
25.337809085845947,85.28902626037598,33.725169901251796,23.905886043310165,3.499524261802435
25.049125909805298,85.1845953464508,33.724769656658175,23.90567820429802,3.175606284290552
24.736730813980103,85.11871457099915,33.724496253728866,23.905448220968246,3.220355086028576
25.049229621887207,85.06925320625305,33.7257279509306,23.906342816352844,3.2831781208515167
24.50044846534729,84.98885560035706,33.72507365822792,23.905951989889143,3.13817672803998
23.95815944671631,84.93721842765808,33.72462012887001,23.905576087236405,3.3927533999085426
23.623597383499146,84.89536130428314,33.72592370390892,23.906528400182722,3.2310864366590977
23.114453315734863,84.84108483791351,33.72519808590412,23.90607588648796,3.082244288176298
22.734951734542847,84.81748497486115,33.72473679423332,23.905686962604523,3.3092371225357056
23.44184374809265,84.04633164405823,33.72585593521595,23.906636782884597,3.1854763105511665
22.941115856170654,84.01855611801147,33.724954096078875,23.90605331659317,3.0180531591176987
22.6251802444458,84.0344330072403,33.72436363995075,23.905569896697997,3.185992132872343
23.21274971961975,83.13916277885437,33.72574012815952,23.90671170592308,3.185878474265337
22.75397276878357,83.19825327396393,33.72461768269539,23.905963155031202,2.977103538811207
22.530842781066895,83.28933537006378,33.72388601362705,23.905377728939055,3.0546944811940193
20.000160098075867,82.05393779277802,33.72467322051525,23.90621412038803,2.9825397059321404
19.898838758468628,82.26596355438232,33.72348425090313,23.90534540295601,2.532924696803093
20.205326437950134,82.49140930175781,33.72294532001018,23.90487109541893,2.2607838306576014
18.45023548603058,81.81439685821533,33.7239987629652,23.90597737789154,2.263352297246456
18.378212809562683,82.05390310287476,33.72283454477787,23.905082038640977,1.8555796649307015
18.60897696018219,82.30018675327301,33.72245390713215,23.90466672182083,1.6713449303060772
28.246277332305908,82.20061135292053,33.725538957118985,23.907135627269746,2.7575213126838207
27.67466402053833,82.34710037708282,33.72471874296665,23.906504070758817,2.8293463438749313
26.397439002990723,82.46627736091614,33.723741431832316,23.905653581619262,3.4287347309291363
26.10022521018982,81.72756141424179,33.72543320298195,23.90712751984596,3.4415092542767525
25.605833292007446,81.89287757873535,33.72436115086079,23.90633868932724,3.1797714196145535
25.04030203819275,82.07429504394531,33.723529950380325,23.90561677455902,3.212423123419285
19.222376108169556,81.45848345756531,33.72412430644035,23.90626868724823,2.5790412575006485
19.222570419311523,81.66422891616821,33.72303750753402,23.905436319112777,2.0767061728984118
19.55189085006714,81.90414661169052,33.722714290618896,23.905056064128875,1.8256099186837675
19.127729296684265,81.39457124471664,33.72338512718677,23.905880954265594,2.124118324369192
18.972832918167114,81.60391837358475,33.72220931649208,23.904976638555524,1.7998739555478098
19.084141612052917,81.84234529733658,33.72187695324421,23.904544781446457,1.7083032559603455
17.592724323272705,81.8807402253151,33.72374279439449,23.90600893497467,1.855203988030553
17.482590436935425,82.09391558170319,33.72271577656269,23.90513790011406,1.625937478616834
17.5423721075058,82.31634223461151,33.72249566376209,23.904748711586,1.5682340264320376
18.069541811943054,82.11101019382477,33.72462371230125,23.906533653736112,1.927932756021619
17.927276253700256,82.33103573322296,33.72352599143982,23.905629502534865,1.7471024151891472
17.916569471359253,82.5406231880188,33.72313199639321,23.905136719942092,1.7443580124527218
21.256084203720093,82.84111177921295,33.72808208286762,23.90875625014305,2.1908634193241596
20.893521666526794,83.01714515686035,33.72691289722919,23.907885454893112,2.2201770301908255
20.46670711040497,83.15210890769958,33.72603939294815,23.907103444337842,2.713300570845604
22.16395592689514,83.50620627403259,33.73028626859188,23.91011866927147,2.6960018314421177
21.648471117019653,83.61274111270905,33.72912542998791,23.90927569746971,2.83365598320961
21.11677622795105,83.69324100017548,33.72820831298828,23.908489298820495,3.48695258051157
24.578516244888306,83.78214693069458,33.73114679634571,23.91065652012825,3.1245314925909042
23.90411114692688,83.80634438991547,33.730016373991965,23.909874173402784,3.187121845781803
23.114505767822266,83.83107900619507,33.72900331974029,23.909066492319106,3.6594057120382786
26.049684047698975,84.00459146499634,33.731018157601355,23.910435599088668,4.081356920301914
25.046945571899414,83.92759847640991,33.730018053054806,23.909757812023162,3.910061664879322
24.223843574523926,83.9038290977478,33.729135670661925,23.90908303976059,3.9080764949321747
31.56344747543335,84.70612645149231,33.73151282131672,23.91063092470169,4.223423473536968
30.16203737258911,84.55394470691681,33.73068242013454,23.91009698629379,3.910851575434208
28.600951194763184,84.44790625572205,33.72960666656494,23.90933516740799,3.8140419349074364
31.282342433929443,85.57333898544312,33.73083000063896,23.90999593138695,3.79611824080348
30.007285833358765,85.41300582885742,33.73010303616524,23.909584809541702,3.3049546405673027
28.56050944328308,85.29092311859131,33.72926197052002,23.909001221656798,3.217217404395342
26.055983066558838,85.03249764442444,33.73021008312702,23.909630832672118,3.1405494771897793
25.1977059841156,84.9215167760849,33.72943663597107,23.909168781042098,2.949097253382206
24.301552534103394,84.84966504573822,33.7288087952137,23.90867841243744,3.1939743869006634
28.081021070480347,85.08826971054077,33.730599378943445,23.909937012195588,3.1289157308638096
27.048907041549683,84.9640280008316,33.729760357141494,23.90942291855812,3.0313564129173756
25.78513479232788,84.86929738521576,33.72895662248135,23.908808878660203,3.3803434893488884
25.89687442779541,85.02542233467102,33.73035889208317,23.9098096036911,2.8077099695801735
25.195960760116577,84.93259751796722,33.7295190602541,23.90929149389267,2.7388110607862473
24.28944206237793,84.86556875705719,33.728813971877095,23.908725647926328,3.1645034477114677
34.194682598114014,86.18335270881653,33.730718136429786,23.909924663305283,3.3512448742985725
33.10724592208862,86.05701780319214,33.730225763320924,23.909622893333434,3.2847022861242294
31.639896392822266,85.9529345035553,33.729399176239966,23.90901728630066,3.5507837906479836
41.882241725921624,87.72837233543396,33.72993280172348,23.908936247825622,3.298668548464775
41.33968210220336,87.65397429466248,33.73024163663387,23.909291690587995,2.8241053074598312
41.07289886474609,87.65879583358765,33.73031839072704,23.909383093118667,2.765753347426653
40.466626644134514,88.06058144569397,33.7282712161541,23.907504101991652,3.460531312972307
39.82196664810181,87.97257924079895,33.72841688156128,23.907792435884474,3.005465216934681
39.26508045196533,87.9427502155304,33.72819058895111,23.907711840867997,2.9572709500789642
33.50785827636719,88.36538553237915,33.72776322722435,23.90705254673958,4.001965209841728
32.580610275268555,88.24533557891846,33.72747543156147,23.907045197486877,3.735450528562069
31.542407035827637,88.14098906517029,33.72707335233688,23.906835498809812,3.8474216908216476
29.670541048049927,88.35053396224976,33.72870838403702,23.90788534760475,4.528491891920567
28.714858055114746,88.23874235153198,33.72842076003551,23.907825820446014,4.490351885557175
27.831775903701782,88.12243676185608,33.728195427656175,23.907706776857374,4.661796003580093
33.08451747894287,88.38357949256897,33.72943101942539,23.908564983606336,4.522113263607025
32.12119436264038,88.28754138946533,33.728927622437475,23.9083568406105,4.088127821683884
31.194077491760254,88.2046890258789,33.72832871735096,23.907997070550916,3.8864233568310738
33.21378803253174,88.85249400138855,33.72947562992573,23.908587560653686,4.2891107723116875
32.20168209075928,88.71352624893188,33.728857729434964,23.908345210552216,3.806499395519495
31.29421091079712,88.60581874847412,33.72818038582802,23.907951902151108,3.624145559966564
27.65528893470764,87.42611598968506,33.729174396395685,23.908619722127913,4.373644612729549
27.152483224868774,87.38699436187744,33.72886391997337,23.908483912944792,3.870389446616173
26.61377763748169,87.32910370826721,33.728608289361,23.90830166220665,3.6689669489860535
29.190308809280396,87.5515124797821,33.72944149076939,23.908810856342313,4.292152062058449
28.375974655151367,87.50268054008484,33.72898753225803,23.90857916712761,3.8830159455537796
27.544429063796997,87.44176864624023,33.72857654809952,23.908290879726408,3.7586212940514088
29.81611466407776,87.62981295585632,33.73215302169323,23.91081492424011,3.8274154290556908
28.909210920333862,87.57931876182556,33.731576411128046,23.910518515110017,3.4579627625644207
27.847695112228394,87.52511668205261,33.73102697134018,23.910137809515,3.472817674279213
23.966047525405884,86.08156251907349,33.73634319543839,23.914141525030136,3.148936241865158
23.461977005004883,86.0379798412323,33.73566130280495,23.91371025443077,3.0293608494102955
22.917470693588257,86.01553797721863,33.73512224853039,23.91327172756195,3.3093363642692566
22.25749945640564,85.24981021881104,33.738695927262306,23.915969103574753,2.9922613725066185
21.768193006515503,85.22998762130737,33.73779495716095,23.91535852909088,3.016744241118431
21.364197492599487,85.24172925949097,33.73705880343914,23.914767699241636,3.3745981976389885
21.872998237609863,85.86141467094421,33.74077776134014,23.917460869550705,2.9402365759015083
21.214359760284424,85.8815712928772,33.74006527006626,23.916986368894577,3.0380465127527714
20.615681171417236,85.91309690475464,33.73947992622852,23.916511052846907,3.5171156972646713
20.90767002105713,85.32905697822571,33.742615090608595,23.918894520998,2.4417430013418198
20.524548649787903,85.36547923088074,33.74203160822391,23.918514970541,2.396756488829851
20.112079739570618,85.42861485481262,33.74148571968078,23.91808037042618,2.6901346668601036
19.911927342414856,84.38073337078094,33.74290358901024,23.919138491153717,2.256184596568346
19.599960803985596,84.46025729179382,33.742160289883614,23.918639024496077,2.2092471960932016
19.31510901451111,84.55357241630554,33.74145834505558,23.91809361696243,2.431168057024479
20.87658202648163,84.10693347454071,33.7433192884922,23.919405084848403,2.451958864927292
20.337364435195923,84.20523250102997,33.74253477990627,23.918884024620056,2.4969871193170547
19.74599039554596,84.29531788825989,33.74172946810722,23.918274755477903,2.8626805022358894
21.23276925086975,84.93545496463776,33.744703560471535,23.920284008979795,2.5704754553735256
20.441699385643005,85.01204204559326,33.74418570637703,23.919960749149322,2.6910700872540474
19.5543155670166,85.07549238204956,33.74360074341297,23.91952110290527,3.2290196269750595
23.97903537750244,84.49762761592865,33.7458658260107,23.921153931617734,2.863196659833193
22.94996476173401,84.50446009635925,33.74553166568279,23.920960297584532,2.9430443458259106
21.556031465530396,84.52352952957153,33.744988657832145,23.920574553012848,3.331252358853817
23.91838049888611,84.2778309583664,33.745372599959374,23.92082100510597,2.9390673004090786
22.87886953353882,84.26632571220398,33.74493053972721,23.92056569814682,2.8452612310647964
21.627717971801758,84.28382515907288,33.74430817067623,23.920132625102994,3.021135352551937
24.175126314163208,84.2487450838089,33.74473526418209,23.920356428623197,3.2806513123214245
22.914262771606445,84.22964560985565,33.74420111835003,23.920030443668363,3.2400721721351147
21.588977336883545,84.24153673648834,33.74350489199161,23.91954180955887,3.4021515250205994
23.591402530670166,84.88456344604492,33.745238720178605,23.92065477967262,3.2871395759284496
22.26027822494507,84.84419190883636,33.7448009622097,23.920409783124924,3.160670068114996
20.959079027175903,84.83781397342682,33.74423498928547,23.92002056956291,3.289816252887249
24.313974142074585,85.1477460861206,33.745240721106526,23.920628415346144,4.971338011324406
22.472760438919067,85.06652808189392,33.7448516613245,23.92039269208908,5.034833274781704
21.02230167388916,85.0390636920929,33.74436085999012,23.920062916278837,4.829849809408188
28.27668285369873,86.0522985458374,33.74475206017494,23.920247627496718,5.287499040365219
26.246031284332275,85.9481201171875,33.74442274928093,23.920069493055344,4.762630634009838
24.206558227539062,85.8935604095459,33.743921251296996,23.91975440144539,4.26893787831068
26.02798318862915,86.14426326751709,33.743042865395545,23.91914060115814,3.123968731611967
24.75278949737549,86.07578182220459,33.742607784271236,23.91890777468681,2.799554545432329
23.321420907974243,86.0509946346283,33.74211764276028,23.918559902906416,2.849854849278927
24.354026079177856,85.22707009315491,33.74250649869442,23.918799345493316,3.153023425489664
23.208542823791504,85.14381575584412,33.74196035265923,23.918462899923323,3.0138623751699924
22.072332859039307,85.11561107635498,33.74137564182281,23.91802560329437,3.170124687254429
24.77856731414795,85.15918517112732,33.742766431570054,23.918971571922302,2.816697381436825
23.691103219985962,85.09460258483887,33.742176592350006,23.918611830472944,2.772553250193596
22.397522687911987,85.06727337837219,33.74150519251823,23.918113758563994,3.09758585318923
29.084301948547363,86.11984729766846,33.743142246603966,23.919162162542342,3.0479778945446014
27.658841371536255,86.03460311889648,33.74280855834484,23.918970584869385,3.04886419698596
25.743037223815918,85.97997760772705,33.74226534128189,23.918578850030897,3.3945997655391693
33.20606327056885,87.08572149276733,33.7432383877039,23.91914196372032,3.7173917181789875
31.85941791534424,87.01525950431824,33.74310320973396,23.91909744977951,3.346457801759243
30.30526375770569,87.00135278701782,33.742761061787604,23.91887924671173,3.2234905883669853
31.17940044403076,87.71784663200378,33.742568538188934,23.918658289909363,3.580493278801441
