20.672895669937134,83.19518554210663,33.686917268931865,23.88077854812145,2.066136844456196
21.05342721939087,83.57561361789703,33.68821816042066,23.881459723711014,2.1768372263759375
21.62485933303833,83.95334661006927,33.6896019898355,23.88218779593706,2.290708314627409
18.711209654808044,82.17197823524475,33.68694402396679,23.88092293769121,1.9992484189569952
19.403704166412354,82.52888298034668,33.68787105172873,23.881384489536284,2.0917851328849792
20.269532561302185,82.88179802894592,33.68902144983411,23.88197269707918,2.2222329434007406
18.443966269493103,82.00903153419495,33.68633937358857,23.88064366787672,1.9857719950377943
19.146530389785767,82.36137473583221,33.68722717136145,23.881074500381946,2.065859654918313
20.007193446159363,82.71094381809235,33.68833102375269,23.881628557145596,2.1943351197987795
17.263296604156494,81.52071410417557,33.68469972848892,23.879790014624596,1.9315451048314574
18.05290973186493,81.8587988615036,33.68529617667198,23.880044722557066,1.9960508067160847
18.97423243522644,82.19485819339752,33.68611433759332,23.88042309999466,2.1288680136203766
17.713367700576782,81.33303260803223,33.68452314123511,23.879792761206627,2.0197907872498035
18.412200570106506,81.65206241607666,33.685145254135136,23.880068991184235,2.0698869079351425
19.226433992385864,81.97960984706879,33.685997399985794,23.88046816289425,2.1879201140254736
22.100037097930908,82.08205556869507,33.685611216872935,23.880299379527568,2.308162286877632
22.113314628601074,82.39997851848602,33.68685055837035,23.88095741659403,2.327568655833602
22.325916051864624,82.72878122329712,33.68819540321827,23.88165727555752,2.3834543246775866
28.572718858718872,84.42558777332306,33.69000541418791,23.882395384609698,2.684491131454706
28.601571083068848,84.94478583335876,33.69204054027796,23.8835474640131,2.7519409768283367
28.739033699035645,85.42233562469482,33.693648559451105,23.884422317445278,2.7612981982529163
31.157616138458252,86.37568140029907,33.69111405566335,23.882462563216684,3.413888704031706
31.895445346832275,86.78184795379639,33.69255692183972,23.883298328816892,3.531051952391863
32.47688388824463,87.12277102470398,33.693482383191586,23.883809404969217,3.502825725823641
36.48611402511597,87.13766264915466,33.68730669617653,23.879828564226628,5.425995238125324
37.572325229644775,87.48246312141418,33.68883143544197,23.880727275907994,5.425496682524681
38.22779035568237,87.75309228897095,33.689974693506954,23.881365432441235,5.247090891003609
42.837444305419915,88.04953503608704,33.68649459436536,23.879269729554654,9.150219321250916
42.90271615982055,88.15115642547607,33.68810763597489,23.88032412558794,8.551227062940598
43.09951162338256,88.23871946334839,33.688727194070815,23.8807463401556,7.723526194691658
46.98681688308715,88.44963836669922,33.68731079593301,23.87990988701582,10.275314137339592
46.383915901184075,88.24282646179199,33.6890813395381,23.881236810684204,10.011211097240448
46.35234928131103,88.15018224716187,33.68935716316104,23.881537452340126,9.882619962096214
46.01259565353393,87.8689215183258,33.6873765771091,23.880082240402697,10.078340753912926
46.023386478424065,87.77966618537903,33.68871558815241,23.88115418791771,9.950467109680176
46.15190601348876,87.76086282730103,33.68885634377599,23.881385909318922,10.054716527462006
45.39668893814086,87.63310170173645,33.68700883150101,23.879927424192427,10.059612229466438
45.67735767364501,87.59409737586975,33.68824516892433,23.88093051046133,9.971629068255424
45.89322185516357,87.60817360877991,33.68838285878301,23.88116371065378,10.128514155745506
42.23276948928832,86.9440758228302,33.68506656751037,23.87893960684538,9.437886908650398
43.66238689422607,87.06386613845825,33.68586768433452,23.87961462855339,8.947378605604172
44.46491336822509,87.21123600006104,33.68596480980516,23.879804800748825,8.688222229480743
39.04683446884155,86.25603556632996,33.68318282932043,23.877924729585647,9.18611666560173
40.866573810577385,86.43670344352722,33.6836171849072,23.878325679600238,8.376232370734215
42.124269962310784,86.67123866081238,33.68359066188336,23.878414090573788,7.67648158967495
36.225746631622314,86.02222847938538,33.682119737118484,23.87732706144452,8.794411554932594
37.92232608795166,86.21289205551147,33.68234395235777,23.877569942176343,7.772329658269882
39.40379238128662,86.4769287109375,33.68226309716702,23.87760596513748,6.8334773778915405
37.51286602020264,85.4550428390503,33.682628958523274,23.877510037720203,9.952603489160538
38.808077335357666,85.61705541610718,33.683028010874985,23.877847627699374,9.068089410662651
39.789710998535156,85.8468177318573,33.683097387552266,23.877967819273472,8.008199766278267
32.23499631881714,85.43786454200745,33.68295243293047,23.877641024291513,8.777456641197205
33.11058855056763,85.5953323841095,33.683414641916755,23.877965216636657,7.9747211039066315
34.174240589141846,85.8193769454956,33.68382435739041,23.87824921697378,6.9630173444747925
30.51578378677368,85.2321105003357,33.683192642182114,23.877690931260585,9.472959473729134
31.011770725250244,85.36867785453796,33.683914738446475,23.878138639330864,9.364971056580544
31.71291208267212,85.54910182952881,33.68463007688523,23.878577488958836,8.703129947185516
32.27108097076416,85.44495558738708,33.68320305049419,23.877644860744475,10.097357615828514
32.807265281677246,85.63712120056152,33.68406789660454,23.87817949742079,9.96359920501709
33.464590072631836,85.87457394599915,33.68486458912492,23.878663430511953,9.212264850735664
29.30579161643982,85.59032702445984,33.68415582478047,23.878155347704887,8.83997692167759
29.881311416625977,85.77894568443298,33.685155171602965,23.878745482861994,8.791704535484314
30.684590101242065,86.00080370903015,33.686172577738766,23.879338445961476,8.227228283882141
28.474699020385742,85.6180489063263,33.68324717819691,23.877665035426617,8.982083708047867
28.965335845947266,85.80590081214905,33.68419202655554,23.878218314349652,9.205564022064209
29.687113523483276,86.02769374847412,33.68518534108996,23.878794377744196,8.824332267045975
40.47912216186523,86.13064193725586,33.68393635034561,23.87793196171522,12.7535163462162
40.09427165985107,86.43330669403076,33.68542063385248,23.878867160379887,12.874679774045942
39.936259746551514,86.74293947219849,33.686288693249224,23.879405923187733,12.14070065319538
42.62877082824706,86.11976647377014,33.686166191399096,23.879239565432073,10.571444764733315
43.17651367187499,86.32093071937561,33.68726468741894,23.880020493268965,9.768511414527893
43.54748344421386,86.55309629440308,33.68764123469591,23.88031775891781,8.816203832626343
32.5383243560791,85.22508382797241,33.683943034410476,23.878258607387544,7.006142571568489
33.792460918426514,85.35648775100708,33.68398957744241,23.87836984038353,5.710683226585388
35.41752910614014,85.56828713417053,33.68402212202549,23.878444899320602,4.789517767727375
32.21180772781372,83.70584666728973,33.67984253428877,23.87604661107063,10.129692316055298
32.76112174987793,83.60106492042542,33.679300250634554,23.875824270248412,9.233464360237122
33.405381202697754,83.496577501297,33.6786013635248,23.875503821820022,8.071546837687492
27.011229753494263,82.9314957857132,33.68154905289412,23.876937226504086,10.959853440523148
26.66125750541687,82.85212206840515,33.68143901661038,23.87691975593567,11.67911460995674
26.534539222717285,82.76845324039459,33.68127847030759,23.87688905403018,11.646824166178702
30.995051622390747,84.00401425361633,33.68675394386053,23.87969876140356,10.05409760773182
30.946366548538208,84.13325488567352,33.68794171854854,23.88037951141596,10.73430648446083
30.94414210319519,84.26162111759186,33.68915412396193,23.881066545844078,10.661233723163605
32.19057655334473,84.8585993051529,33.68923914194107,23.88107615083456,7.707137227058411
32.65264844894409,85.09462475776672,33.690501059591774,23.88179019510746,8.03566089272499
32.98768615722656,85.30755281448364,33.691643368154764,23.88241910159588,7.892924457788467
32.4847731590271,86.01486992835999,33.6922442419827,23.882685995697976,7.537838876247406
33.06449270248413,86.19859051704407,33.69304844468832,23.88316821038723,7.6959430277347565
33.52788066864014,86.37013602256775,33.6935875365138,23.883466099202632,7.497087404131889
33.398080825805664,86.51058793067932,33.69180179014802,23.882339680492876,8.727704346179962
33.73093938827515,86.65855860710144,33.69273321807385,23.88291924417019,8.821786850690842
34.00928592681885,86.80346512794495,33.69328430473804,23.88324261665344,8.465556636452675
38.01244831085205,87.65669012069702,33.69241937816143,23.882548011243344,9.543537110090256
37.94514513015747,87.70101308822632,33.69313668400049,23.883062177300452,9.470650762319565
37.84596538543701,87.76092219352722,33.693346059918404,23.883211260735987,8.947671636939049
38.42690324783325,88.16016578674316,33.69327352494002,23.883068577051162,8.549531236290932
38.67605543136597,88.09872531890869,33.69354671865702,23.88336019486189,8.068202123045921
38.871294021606445,88.09404039382935,33.69345003843308,23.883351896107197,7.362331211566925
41.50347089767455,88.71525502204895,33.69444887965918,23.883828322589398,8.028073593974113
41.51479816436767,88.50309443473816,33.69458046078682,23.884109349250792,7.396190747618675
41.66085577011108,88.409747838974,33.694272363483904,23.884003102481365,6.729156211018562
42.07925176620483,88.8315327167511,33.696471978724006,23.885154976248742,7.386539489030838
42.254816055297844,88.57673287391663,33.69645395964384,23.88538458764553,6.682032480835915
42.549522876739495,88.46395707130432,33.696065868139264,23.885237677693368,6.1239486038684845
35.66820001602173,87.13150572776794,33.69892231345177,23.886736374497413,7.532476469874382
36.20477056503296,87.1837522983551,33.69852605462074,23.88660350859165,7.197991594672203
36.611491203308105,87.29994988441467,33.69827008605004,23.886473945379258,6.722874477505684
37.90263271331787,85.89010071754456,33.69897721290589,23.886767432689666,10.198587536811829
37.61240100860596,85.9358856678009,33.69875209242105,23.886728726625442,10.605454504489899
37.25473976135254,86.04590773582458,33.6986168178916,23.886655876040457,10.508905708789825
35.35973405838013,85.47937512397766,33.69873207509518,23.886669659018516,10.249796271324158
35.170424938201904,85.49672651290894,33.69852631479502,23.886613572239874,10.766954332590103
34.900275230407715,85.56958103179932,33.698473944664,23.886581476926803,10.79020170867443
35.2149543762207,85.63583874702454,33.69829176366329,23.88638335466385,10.165873304009438
34.89338254928589,85.65442609786987,33.69821256875992,23.88639772415161,10.688002839684486
34.52367877960205,85.72295475006104,33.698223340511326,23.88639914929867,10.698659926652908
28.1519935131073,85.0255696773529,33.69825931966305,23.886537384986877,8.112480700016022
28.210620641708374,84.99523317813873,33.69817362844944,23.88651577889919,8.384565323591232
28.443933486938477,84.99949073791504,33.698291779756545,23.886584645509718,8.350266575813293
24.872675895690918,85.43024563789368,33.697765195071696,23.886389761567116,6.2462610229849815
25.144126176834106,85.40495419502258,33.698114973902705,23.886619741320608,6.278098843991756
25.62924599647522,85.39894819259644,33.69846752882004,23.886829180717466,6.100772976875305
25.479259252548218,85.69860458374023,33.69661985963583,23.885720205307006,5.969152621924877
25.771398305892944,85.71864891052246,33.69739075869322,23.886198647022248,5.8610495403409
26.206124782562256,85.74732422828674,33.69796669065953,23.886544015407562,5.524012878537178
25.06061291694641,85.69074606895447,33.6957674536109,23.885243430137635,4.9696358144283295
25.63095188140869,85.78135681152344,33.69661721765995,23.88576131284237,4.8358888030052185
26.282803773880005,85.86191749572754,33.697282432317735,23.88614799618721,4.592982925474644
33.55624055862427,86.53438377380371,33.69662616014481,23.885644212961196,5.189100190997124
34.31845283508301,86.72947478294373,33.697245876491074,23.8860348623991,5.048325791954994
34.718154430389404,86.89878869056702,33.69752342611552,23.88616411626339,4.791809715330601
33.046496868133545,87.37167143821716,33.69713130056858,23.885710089802743,6.4603904858231544
33.50624895095825,87.44272208213806,33.69736619234085,23.885903169512748,6.283550433814526
33.813682556152344,87.52009057998657,33.69744530677796,23.88594043791294,5.933409504592419
37.75233840942383,87.87967538833618,33.697419541478155,23.885634329915046,8.622653618454933
37.291024684906006,87.8389093875885,33.69766600966454,23.88589205265045,8.486381977796555
36.86673021316528,87.84631013870239,33.69766252815724,23.88590240418911,8.00387068092823
36.772154331207275,88.37238931655884,33.69793729901314,23.885906684994698,8.057594656944275
36.522732734680176,88.24183297157288,33.69798609912396,23.886072186231612,7.7218612134456635
36.313286781311035,88.18849277496338,33.697876992225645,23.886038719415666,7.180131435394287
31.695514678955078,88.58553051948547,33.69848137974739,23.886355758309364,6.124376080930233
31.895564556121826,88.4281656742096,33.69835041821003,23.886410428881646,5.624716751277447
32.215336322784424,88.3476972579956,33.69822596102953,23.886376450657846,5.190728962421417
26.58598518371582,88.65987133979797,33.698684921860696,23.886678887605665,4.565636798739433
26.916547775268555,88.50321173667908,33.69877450495959,23.88684864103794,4.282710686326027
27.472045183181763,88.40570664405823,33.69883476883173,23.886915717720985,4.119327947497368
25.556894302368164,88.7468957901001,33.69873615205288,23.88681831598282,4.338019847869873
25.8868191242218,88.57119607925415,33.699099119305615,23.88715402662754,4.064964935183525
26.40790557861328,88.45308876037598,33.69930440485478,23.887308149933816,3.907496802508831
24.955252170562744,88.80800151824951,33.69908378511667,23.887138080000877,4.23590312153101
25.248639345169067,88.62248420715332,33.69967921674252,23.887615196704864,3.892868034541607
25.70866084098816,88.49230909347534,33.700020197927955,23.887851531505586,3.688773386180401
24.60843539237976,88.92588925361633,33.70038410395384,23.888036435842512,3.94080950319767
24.839750289916992,88.72032117843628,33.70105905503035,23.888565576672555,3.57273280993104
25.236515760421753,88.57306575775146,33.70145167678594,23.888830196261406,3.373652383685112
24.616715669631958,89.04461026191711,33.701843011081216,23.888964369297028,3.7637788467109203
24.761602640151978,88.81100702285767,33.70239469587803,23.88943248271942,3.4037139117717743
25.093482494354248,88.64589381217957,33.7027254229784,23.889660826325414,3.231590524315834
21.61212182044983,85.74821829795837,33.70167727738619,23.889070971012114,4.345687948167324
22.198333501815796,85.70799732208252,33.70228132426739,23.88949075102806,4.116783872246742
22.96851372718811,85.68758463859558,33.70279226899147,23.88981631398201,3.887495569884777
20.624964594841003,83.76117241382599,33.70155908852816,23.889355447888374,4.488981276750565
21.13953685760498,83.76885211467743,33.702252879440785,23.889810688495636,4.057555332779884
21.83657741546631,83.79519355297089,33.70288369208574,23.890222557783126,3.639649733901024
20.633111357688904,83.36103653907776,33.701840167939665,23.889892646074294,2.6761616989970207
21.000717639923096,83.42403984069824,33.70231921851635,23.890195235013962,2.4899952709674835
21.543971061706543,83.49384093284607,33.70285058826208,23.890500969290734,2.4158142544329166
20.142041206359863,83.04364895820618,33.70242338210345,23.890599926710127,1.8241499587893488
20.63854491710663,83.22521877288818,33.7027737402916,23.890743226408958,1.9160956647247078
21.276373624801636,83.39093959331512,33.70316007226705,23.890898925065994,2.0351815540343523
19.958466053009033,82.57648539543152,33.702811052501204,23.89097089767456,1.8533489890396597
20.474366903305054,82.84450852870941,33.70313901424408,23.89108576416969,1.9508029464632275
21.14932155609131,83.08978188037872,33.70350477367639,23.891218156218528,2.0752577800303698
19.21888566017151,82.23763084411621,33.7024165558815,23.890903191566466,1.845003128051758
19.757479786872864,82.54683017730713,33.70299961447716,23.891149944067,1.9264860395342114
20.47134792804718,82.82863163948059,33.70354863584042,23.891377663612364,2.0448371712118387
20.40591812133789,82.09199440479279,33.7021188467741,23.890779860019684,1.9814263973385098
20.754222631454468,82.41555213928223,33.70285269379616,23.891118154525756,2.041141590103507
21.28800129890442,82.71689581871033,33.70351540327072,23.891412160396577,2.134378779679537
24.165253400802612,81.74021750688553,33.70237493872643,23.890852424502373,2.476676259189844
24.032928705215454,82.07034540176392,33.70295826554298,23.891146929264067,2.4402726478874683
24.086118698120117,82.38590800762177,33.70354554593563,23.891414409875868,2.4470383524894714
20.007201194763184,81.53779888153076,33.702714163064954,23.891267775297166,2.265637706965208
20.13357138633728,81.83361703157425,33.70325310468674,23.891510177254677,2.2642577942460775
20.54640805721283,82.1358470916748,33.70386899083853,23.89177805662155,2.3188443519175053
19.84976863861084,81.74755692481995,33.7024714499712,23.891134989857672,2.114266738295555
20.01924431324005,82.04242467880249,33.703124712705616,23.891423804759977,2.154569024220109
20.454334378242493,82.34251880645752,33.703786207139494,23.891710275411604,2.2355408910661936
18.61045813560486,81.8644009232521,33.70163607597351,23.890642082095145,1.9073953330516817
19.013373613357544,82.17574083805084,33.7024911159277,23.89103104352951,1.9699454531073572
19.641115427017212,82.48038613796234,33.703287718594076,23.89138935983181,2.075877035036683
18.513076066970825,82.07190501689911,33.70172899574042,23.890654904842375,1.8975095488131049
18.998027801513672,82.39586186408997,33.702580551505086,23.891053838729857,1.966842891648412
19.709891438484192,82.7067095041275,33.70336306989193,23.8914108890295,2.070721158757806
17.83135747909546,82.06108248233795,33.7014014685154,23.890498948693274,1.8252536877989771
18.46595025062561,82.4007602930069,33.70233444273472,23.890935623049735,1.901531018316746
19.319135904312134,82.72206389904022,33.70318838566542,23.891328248381615,2.0146834421902895
17.857051253318787,82.07750368118286,33.70106970608234,23.890305615067483,1.8247358538210394
18.521324157714844,82.42223763465881,33.70208187252283,23.890788916945457,1.8985171373933556
19.396624326705933,82.74761891365051,33.70300471335649,23.891222351193427,2.0089319478720427
18.057453989982605,81.81425774097443,33.700575358867646,23.890043309330938,1.8718762639909985
18.716837525367737,82.1670812368393,33.70165403604508,23.890564965009688,1.923296054825187
19.570446372032166,82.50232481956482,33.702671397924426,23.891051696538923,2.0228537023067474
19.279663920402527,81.90942788124084,33.701043071746824,23.89028165578842,2.0081701166927814
19.709501028060913,82.24140310287476,33.702070481181146,23.890791368484496,2.0406591277569532
20.360169172286987,82.56317019462585,33.70301827996969,23.891247732043265,2.1160090006887913
18.842194437980652,82.09915053844452,33.70147043079138,23.890514203310012,1.9521214198321106
19.300139904022217,82.42297792434692,33.70241986036301,23.890978159308432,2.00562771782279
19.994761109352112,82.73677778244019,33.70328168094158,23.891385012865065,2.0932717472314835
19.167166709899902,82.45557034015656,33.70196898907423,23.890711705088616,1.9407139848917725
19.579229712486267,82.76932227611542,33.70280402243137,23.891122192144394,2.015597488731146
20.233826398849487,83.07154142856598,33.703541034460066,23.891466593146323,2.107766991481185
20.526723623275757,82.92731976509094,33.70249800115824,23.890865093469618,1.9687962103635075
20.797077775001526,83.21961045265198,33.70317503899336,23.891201117038726,2.062212772667408
21.298458337783813,83.50000822544098,33.70374340444803,23.891460000276567,2.151815401390195
21.5029034614563,83.39500653743744,33.70325537919998,23.891112793684005,2.0380297247320414
21.694780349731445,83.67402958869934,33.703579765558246,23.891277070045472,2.15420944057405
22.126657724380493,83.94979643821716,33.703898623883724,23.89140839099884,2.2419502809643745
22.109906435012817,84.16092240810394,33.703610125482086,23.891188380122184,1.990496873855591
22.299521923065186,84.4426337480545,33.70374689936638,23.891244844198226,2.1495369486510754
22.69818639755249,84.73151695728302,33.70391443014145,23.891288948655127,2.255222437903285
26.634208917617798,85.17988967895508,33.70349416822195,23.89085591852665,2.1526675894856453
26.879298448562622,85.49153590202332,33.70341986298561,23.890795050263403,2.344577968120575
27.114017963409424,85.8173291683197,33.70338498353958,23.8907125633955,2.4498203061521053
29.441158533096313,86.24721431732178,33.70262073636055,23.8898394793272,3.498509716242552
30.07223105430603,86.41688370704651,33.702298128306865,23.889641026258467,3.536340933293104
30.481912851333618,86.61301183700562,33.70206526428461,23.88943839073181,3.50601839274168
26.425087213516235,84.52261900901794,33.70199925243855,23.889392346143723,4.527346588671207
26.865707397460938,84.55318868160248,33.70173828959465,23.88922971844673,4.56137577444315
27.296368837356567,84.5905032157898,33.701701800823216,23.88916668474674,4.534011207520962
22.892528533935547,84.2446094751358,33.70203839123249,23.889528269767762,5.0921202301979065
23.150368690490723,84.22790968418121,33.702224855721,23.88964600801468,4.956705555319786
23.5893497467041,84.22478580474854,33.70250279963017,23.889804834127425,4.716534860432148
22.46366000175476,84.26928508281708,33.70171621233225,23.88943733215332,4.361098580062389
22.691508293151855,84.26193904876709,33.702073611319065,23.88966091573238,4.140779249370098
23.07660675048828,84.26358842849731,33.702452451884746,23.889885107278822,3.880850061774254
21.229498147964478,83.96414053440094,33.701692506968975,23.889678525328637,2.7186460457742214
21.52801012992859,83.97326827049255,33.70205755829811,23.88988707602024,2.6553579829633236
21.96299648284912,83.98724615573883,33.7024808511138,23.89011025547981,2.624507885426283
21.292598009109497,84.07130694389343,33.703512627184395,23.89097664475441,2.263011572882533
21.62999129295349,84.11250925064087,33.70366089433432,23.891034194231032,2.3084405660629272
22.08118176460266,84.16058695316315,33.703894077539445,23.891123585104943,2.3607920054346323
19.916337490081787,83.33424735069275,33.705259520411495,23.892429547309874,1.799170043319464
20.403271675109863,83.47683250904083,33.705399032831195,23.89244945824146,1.907227694988251
21.009520053863525,83.61159098148346,33.705636719465254,23.892517244815824,2.030396744608879
29.915891647338867,83.3062754869461,33.70709926098585,23.893465715050695,2.442496869713068
29.782308101654053,83.52369606494904,33.70695908069611,23.89338110208511,2.46153150126338
29.540701866149902,83.73625111579895,33.70692911237478,23.893302919268606,2.4797985181212425
23.744394540786743,83.18354797363281,33.708048379421236,23.894251802563666,2.2265834864228964
23.74086594581604,83.392214179039,33.707863781750206,23.894098439216613,2.284946007654071
23.81837821006775,83.59805727005005,33.70787866801024,23.894037846326828,2.357671255245805
22.676400899887085,83.24682807922363,33.70818439692259,23.894325296878815,2.290237922221422
22.7177152633667,83.42913389205933,33.70800324320793,23.894163967370986,2.34116904810071
22.843093633651733,83.61275899410248,33.708035931289196,23.894114620089532,2.4077374525368214
21.908113718032837,83.6138665676117,33.707999388873574,23.89410144150257,2.4266818948090076
21.804588794708252,83.69023370742798,33.70795418292284,23.894047681093216,2.404116554185748
21.823358297348022,83.77594673633575,33.708076137602326,23.89407329082489,2.41030365601182
20.39611256122589,84.03006315231323,33.70803320884705,23.89428248524666,1.7981951441615822
20.611570835113525,84.17913889884949,33.70801530778408,23.894201822280884,1.9321921877563002
20.94452655315399,84.33212888240814,33.708123135268686,23.894188286066054,2.0575084295123816
19.078668117523193,83.36483132839203,33.707782985568045,23.894244288802145,1.6764575140550735
19.55077087879181,83.56992018222809,33.707812532782555,23.894179461598394,1.8065025322139265
20.158604741096497,83.7682055234909,33.70795137733221,23.894176108837126,1.9436531830579045
18.776062488555908,82.9269278049469,33.70746054917574,23.8941307169199,1.6875949259847405
19.339065313339233,83.17484903335571,33.70759739279747,23.894125790596007,1.7968205120414498
20.049980640411377,83.40794587135315,33.70780174225569,23.894157485365866,1.922782411798835
26.760419368743896,83.62288808822632,33.707811374068264,23.894030493497848,2.2136899400502443
26.538934469223022,83.86404693126678,33.70779852360487,23.89402681350708,2.2807991448789835
26.36872148513794,84.10846090316772,33.70785770654678,23.89401207923889,2.316862450912595
31.211939811706543,84.21853947639465,33.709563854336736,23.89475038409233,3.3269720561802387
30.382078647613525,84.50498723983765,33.70930435866118,23.89470325052738,3.4831761978566647
29.653701543807983,84.80768311023712,33.709186464846134,23.894632506370545,3.3914342559874058
30.306200742721558,84.2090870141983,33.71089920282364,23.895642873048782,4.642203137278557
29.91541838645935,84.37785160541534,33.71055697709322,23.895435300469398,4.639630898833275
29.315410614013672,84.56271052360535,33.71045527845621,23.895329144001007,4.431803956627846
34.68226766586304,84.70059752464294,33.712368543744084,23.896358082294462,8.129067480564117
33.07353591918945,84.80948913097382,33.71231074750423,23.896378690600393,8.206230610609055
31.497450828552246,84.94606971740723,33.7124679812789,23.896453479528425,7.815558820962906
32.96655988693237,84.48785436153412,33.71381649672985,23.897359077334404,9.371270224452019
31.17674684524536,84.5960339307785,33.71382987827062,23.89742969632149,9.458566069602966
29.5110867023468,84.74427247047424,33.71414294838905,23.897621048688887,9.048115000128746
33.48156785964966,84.44811260700226,33.713941836357115,23.897438876628875,9.968004733324051
31.54004669189453,84.56568884849548,33.71398331940174,23.897532158493995,10.152304008603096
29.7514865398407,84.72540259361267,33.71432813078165,23.89774386703968,9.806666508316994
26.765432119369507,84.67814993858337,33.71415570765734,23.89775097131729,7.160395070910454
25.57730770111084,84.75767743587494,33.714306445121764,23.89787796139717,6.970131233334541
24.62945795059204,84.86981666088104,33.71471510916948,23.898136444091797,6.484369099140167
27.18291735649109,85.30108332633972,33.714200932383534,23.897724104523657,6.613287128508091
26.03657341003418,85.36507153511047,33.71437669217587,23.897884343266487,6.35904623568058
25.09409523010254,85.46846890449524,33.71478242993355,23.89814827442169,5.8709579557180405
20.630926251411438,84.08681118488312,33.71395492553711,23.897789376974107,4.66978395730257
20.580186009407043,84.17880308628082,33.71408061653376,23.89789745926857,4.322692699730396
20.728676676750183,84.28331160545349,33.71440383076668,23.898107259869576,3.968740351498127
20.103185534477234,83.27321887016296,33.71337016373873,23.897608642578124,2.9575726985931396
20.06764507293701,83.41063702106476,33.71335252821446,23.89762648820877,2.6506652906537056
20.19569492340088,83.54558646678925,33.71354027211666,23.897742661833764,2.475593149662018
21.59190273284912,82.88055884838104,33.71200356215238,23.896987877488137,2.1181800812482834
21.434727668762207,83.09031510353088,33.711940224468705,23.89692230463028,2.071746600791812
21.410430431365967,83.28720533847809,33.71207123965025,23.89694508910179,2.0987829323858023
26.694875717163086,82.81172370910645,33.71199568450451,23.89699151992798,2.4398287422955036
26.032485723495483,83.10769045352936,33.71180217653513,23.896868571043015,2.419116724282503
25.481465816497803,83.39327275753021,33.71180931389332,23.896813977360726,2.4060496725142
28.08040714263916,82.91471552848816,33.71302462279797,23.89751847743988,3.1110647916793823
27.095274686813354,83.23731911182404,33.71269761055708,23.897360663414002,3.0860813558101654
26.27368426322937,83.55003643035889,33.712641402184964,23.89729551613331,2.9758154079318047
25.103249311447144,83.3081887960434,33.71286452174187,23.897249535918235,3.7096929401159286
24.607810735702515,83.48587334156036,33.71252468317747,23.89702135682106,3.5148582831025124
24.118112087249756,83.65808546543121,33.712496055960656,23.896968656778334,3.2979451902210712
25.79349136352539,83.6577775478363,33.71305698633194,23.89724132657051,4.031918108463287
25.167933464050293,83.7839629650116,33.71273441582918,23.897046362161635,3.808629907667637
24.515218496322632,83.90561759471893,33.71273337513208,23.897017825245857,3.564189974218607
25.39716100692749,83.51756775379181,33.71304493248463,23.897227062582967,4.0512115731835365
24.760756254196167,83.6499412059784,33.71275669962168,23.897057908177374,3.7857266925275326
24.123202323913574,83.77466821670532,33.712781703174116,23.897053825855256,3.508323583751917
27.639467477798462,83.96044659614563,33.7130676561594,23.897178695201873,4.2554373145103455
26.922094583511353,84.06049263477325,33.712744774520395,23.89699600815773,4.017360419034958
26.099952220916748,84.1629011631012,33.71271604806185,23.89695219874382,3.734032981097698
28.586965560913086,84.39218032360077,33.713174402713776,23.897160366773605,4.613485395908356
27.895906925201416,84.49368011951447,33.71285030603409,23.89698462486267,4.439112640917301
27.066672801971436,84.60338282585144,33.712834550738336,23.89694617450237,4.1840841844677925
27.032990217208862,85.06409478187561,33.71347561210394,23.897321002483366,4.756415955722332
26.34651517868042,85.15901780128479,33.71332670658827,23.89726316332817,4.578854389488697
25.64409828186035,85.27231502532959,33.713470808267594,23.897335413098336,4.331165462732315
23.705174684524536,85.21902275085449,33.71408197641372,23.897751039266584,4.6660439521074295
23.200069427490234,85.27442646026611,33.71419883489609,23.89786840736866,4.386882990598679
22.875890493392944,85.3568389415741,33.71452048540115,23.898074039816855,4.074289634823799
22.09798312187195,85.12913656234741,33.71457149028778,23.8981340444088,4.117205314338207
21.82430124282837,85.16989398002625,33.7147357648611,23.898285760879517,3.8035618737339973
21.72966694831848,85.23703217506409,33.715061025619505,23.898500257134437,3.5106488913297653
23.602909803390503,86.19847249984741,33.71580244719982,23.898929097652434,3.6689786836504936
23.20070481300354,86.2780089378357,33.71595160484314,23.899093559980393,3.3953253030776978
22.89820647239685,86.38612270355225,33.716263615489005,23.899298183918,3.1725438721477985
28.6924729347229,87.02997732162476,33.717158019542694,23.899727657437325,3.9635532945394516
28.036293745040894,87.14400696754456,33.71722901761532,23.899881181716918,3.6603461615741253
27.23130202293396,87.28331232070923,33.71746055662632,23.90003898859024,3.3927713371813297
28.857682704925537,88.09076523780823,33.71892915189266,23.9008993768692,4.486342653632164
27.916275024414062,88.11096835136414,33.7192103600502,23.901226338148117,4.046030551195145
26.987789630889893,88.17005705833435,33.71960203766823,23.901518241167068,3.6827045530080795
26.022971630096436,87.90981268882751,33.71991292715072,23.901625329256056,4.5879430547356606
25.33849334716797,87.95808529853821,33.720201350450516,23.90194406867027,4.145191483199596
24.794177770614624,88.04372215270996,33.72064161360264,23.90227778196335,3.7843166887760162
30.05179500579834,88.57701969146729,33.72016593456269,23.90167311191559,5.219698496162891
28.869952917099,88.51274609565735,33.72048893153667,23.90206202507019,4.653444945812225
27.795458793640137,88.51463866233826,33.72090327918529,23.90239582777023,4.170786462724209
33.75229454040527,88.95399308204651,33.72039304792881,23.901719292402266,6.136037990450859
32.24151945114136,88.8005850315094,33.72072459578514,23.90215266227722,5.525417014956474
30.90090847015381,88.74908089637756,33.72110765814781,23.902474448680877,4.9435456320643425
32.92976951599121,88.90686774253845,33.72025749981403,23.901627264022828,6.0132786482572556
31.57236909866333,88.77736139297485,33.720540875196455,23.902015912532807,5.456207975745201
30.34529423713684,88.74086403846741,33.720916341543195,23.902329627275467,4.922113440930843
36.86674213409424,89.14934730529785,33.72033686101437,23.90158385515213,7.016760766506195
35.041807651519775,88.95176792144775,33.720760746598245,23.902104593515396,6.555829517543316
33.58056402206421,88.87878108024597,33.72117059350014,23.902442405223844,6.013900250196457
35.99493598937988,89.16143226623535,33.7201685577631,23.90147880911827,6.850261300802231
34.369550704956055,88.96935749053955,33.720505056977274,23.901929302215574,6.428207330405712
33.02308893203735,88.89896988868713,33.72088023364544,23.90224039554596,5.936686493456364
34.3121919631958,89.2577600479126,33.7198766207695,23.901277600526807,6.162433944642544
32.8745756149292,89.0453712940216,33.72011644244194,23.901658070087432,5.686607718467712
31.642688274383545,88.95585632324219,33.72042740166187,23.901926959753037,5.232257604598999
36.43201446533203,89.25123190879822,33.719868928194046,23.90122139930725,6.815185382962227
34.78018140792847,89.02974939346313,33.720186474919316,23.90167138814926,6.416143760085106
33.45471954345703,88.94068717956543,33.72052608013153,23.901959979534148,5.961192831397057
33.42636203765869,89.0487380027771,33.721139780282975,23.902253477573392,6.238808169960976
32.13384485244751,88.90098690986633,33.72135162115097,23.90259655714035,5.816565774381161
30.9715256690979,88.85566973686218,33.721694981455805,23.902886739969254,5.3701496347785
30.081671237945557,87.94513058662415,33.723020191192624,23.903810853958127,6.084259957075119
29.09639573097229,88.04806017875671,33.723220992088315,23.90407779455185,5.801269806921482
28.134876251220703,88.1894018650055,33.72367048203945,23.90442674279213,5.388401731848717
28.875139713287354,87.38941192626953,33.72555453002453,23.90581264734268,6.237556919455528
27.85787796974182,87.55876731872559,33.725796068310736,23.90608228445053,6.017010271549225
26.887080430984497,87.76856970787048,33.726312661767004,23.906470993757246,5.613352231681347
28.934467792510986,87.32911014556885,33.72762406885624,23.90742262005806,6.436294190585613
27.83672070503235,87.52415323257446,33.727912974953654,23.907715953588486,6.242644734680653
26.78131675720215,87.75872993469238,33.72848144233227,23.908138827085494,5.827789478003979
24.096343278884888,85.58469867706299,33.727081860303876,23.907146495580673,5.977806769311428
23.426729202270508,85.7431914806366,33.72725409567356,23.90731558918953,5.754743203520775
22.940197944641113,85.9451196193695,33.727721352577205,23.907652349472045,5.381426647305489
24.214508295059204,85.47371029853821,33.72682779610157,23.906956609487533,5.87970732152462
23.36005187034607,85.62466502189636,33.727071528434756,23.90717691540718,5.542832262814045
22.716214418411255,85.81383228302002,33.72756488323212,23.907534933090208,5.067486487329006
23.21880316734314,85.29940104484558,33.72661564409733,23.90683041334152,5.330658465623856
22.43738627433777,85.44468092918396,33.726861473917964,23.907050383090972,4.913427442312241
21.87885022163391,85.61962175369263,33.727321821451184,23.907386363744735,4.423541411757469
23.090212106704712,84.62597060203552,33.72591581821442,23.906297851800918,4.405266851186752
22.33237361907959,84.79251897335052,33.72596732735634,23.906389944553375,3.9609891027212143
21.71998953819275,84.96466743946075,33.726256426572796,23.906606398820877,3.5397040881216526
22.6762912273407,83.96398854255676,33.725390663146975,23.90593473792076,3.5658075138926506
22.014870405197144,84.1579430103302,33.72525371491909,23.905895799398422,3.157320659607649
21.443787574768066,84.34089434146881,33.725370047688486,23.90598578572273,2.8439627066254616
19.815772533416748,83.4222846031189,33.72476062834263,23.9056718313694,2.575932241976261
19.601175546646118,83.65799856185913,33.724542355537416,23.905538371801377,2.318781739100814
19.542588353157043,83.87783026695251,33.72454942047596,23.905518391132354,2.1968545522540808
17.92728817462921,82.95935142040253,33.72496662199497,23.906277112960815,1.7591506466269495
18.06449806690216,83.30887258052826,33.724628964066504,23.90594843864441,1.7250935491174462
18.385138273239136,83.63816237449646,33.72449215531349,23.905739637613294,1.7733780052512886
25.858301877975464,82.81361377239227,33.72946125864983,23.909200706481933,3.1630857326090336
23.975900173187256,83.19354009628296,33.72877740263939,23.90882012963295,2.9325887598097324
22.551717519760132,83.56718647480011,33.72836439609527,23.908534324169157,2.64102291688323
25.615942239761353,82.59778714179993,33.73473059773445,23.91217793345451,7.940806582570076
22.297311782836914,83.0181382894516,33.734720700383185,23.912279160022734,11.765255764126776
20.00006890296936,83.43824660778046,33.73519841790199,23.912589992284772,15.769039452075956
18.597545981407166,82.507089138031,33.731122243404386,23.91070188164711,2.7844753339886665
17.990914344787598,82.89815878868103,33.73043817281723,23.910255193710327,2.4853414706885815
17.90457284450531,83.29952204227448,33.72999948143959,23.909901213645934,2.2893878296017647
18.397624254226685,82.74767220020294,33.72603550374508,23.90712305665016,1.8916703797876837
18.279905080795288,83.10908842086792,33.72553032040596,23.906671644449233,1.8064104150980713
18.416216731071472,83.45610618591309,33.725272678136825,23.906371151208877,1.8246032521128657
16.98187267780304,82.69540345668793,33.72853906691074,23.909018706083298,1.9690495114773514
16.957013368606567,83.0677033662796,33.72791003525257,23.908512240648268,1.8507861383259299
17.29705846309662,83.45221841335297,33.727452745437624,23.908078842163086,1.8276618085801604
17.629226803779602,82.82943093776703,33.73145322799682,23.910587322711944,2.968740578740835
16.971126556396484,83.19957292079926,33.73082877218723,23.91034043073654,2.6747280582785606
17.003082394599915,83.58887946605682,33.73039882481098,23.910099972486496,2.34348563849926
21.095582008361816,83.13581538200378,33.73252961993217,23.910914702415464,4.096854388713837
19.131728172302246,83.50689649581909,33.73200882077217,23.910807192325592,4.032793179154396
18.233718633651733,83.8848043680191,33.73168549120426,23.910735405683518,3.423904240131378
22.83098316192627,83.53151524066925,33.73494181632996,23.912193930149076,5.723623208701611
20.042533040046692,83.92728805541992,33.734707509279254,23.912269132137297,7.046097427606583
18.491376996040344,84.32551991939545,33.734704580307,23.91241029858589,7.370806321501732
24.737701177597046,84.00185132026672,33.73680632710457,23.91336884856224,6.996492654085159
21.4818058013916,84.4309550523758,33.73686888694763,23.913569191694258,10.38180722296238
19.37785243988037,84.86211049556732,33.73730897843838,23.91391573309898,13.79314190149307
26.40919303894043,84.46636092662811,33.7324543517828,23.911211651563644,4.2837188616395
25.268871545791626,84.7733644247055,33.73224927008152,23.911098076105116,4.088773228228092
24.0815589427948,85.08477139472961,33.732302538752556,23.91113654255867,3.7021835930645466
29.0645751953125,85.04961585998535,33.73177635371685,23.910644739866257,4.887964561581612
27.818127632141113,85.32430624961853,33.73177715837956,23.910709402561185,4.679281324148178
26.4069721698761,85.60834574699402,33.732028025388715,23.91088828444481,4.302153684198856
30.002397060394287,85.85995697975159,33.73235770642757,23.911108944416046,6.504226833581924
28.406721115112305,86.13627171516418,33.732629601955416,23.91135492444038,6.457129254937172
26.788270235061646,86.4503870010376,33.73318526983261,23.91174540758133,6.074461847543716
24.850138187408447,85.47508788108826,33.732349772453304,23.911202714443206,6.16919881105423
23.710649967193604,85.70428514480591,33.732629263997076,23.911422637701033,6.02941582351923
22.752301454544067,85.9681658744812,33.7331914550066,23.9118139898777,5.651787616312504
26.284236669540405,85.58802461624146,33.732327477931975,23.911149814128876,6.6240759789943695
24.949819803237915,85.81915807723999,33.73263580858708,23.911398040056227,6.507846474647522
23.763230800628662,86.09112906455994,33.733228040337565,23.911813485622407,6.093927979469299
24.58814001083374,85.5249125957489,33.73207898736,23.910987941026686,6.094089582562447
23.512242794036865,85.73939847946167,33.732369899749756,23.91121996998787,5.897191971540451
22.622260808944702,85.98919010162354,33.73292375445366,23.911609659194944,5.480586238205433
30.82743740081787,86.78191304206848,33.73269563794136,23.911334546804426,6.947066247463226
29.16416025161743,87.04806113243103,33.73311075270176,23.91169421672821,6.8749644458293915
27.53778910636902,87.35697937011719,33.73376535117626,23.91216253042221,6.442190021276474
34.90038728713989,88.47854399681091,33.73418020308018,23.912390464544295,7.667521670460701
33.007765769958496,88.59207081794739,33.73473991572857,23.91288217425346,7.768034100532532
31.316162109375,88.73112225532532,33.73544804036617,23.91338417649269,7.516503244638443
34.852317333221436,88.72211861610413,33.7342823523283,23.912457165718077,7.7842259258031845
33.20357656478882,88.79604601860046,33.7347377216816,23.912866653203963,8.019573003053665
31.738461017608643,88.9016900062561,33.73537823319435,23.91331404209137,7.9182780385017395
32.49796009063721,88.59740805625916,33.733620710372925,23.911979825496672,7.300596818327904
31.22862672805786,88.7119791507721,33.73394546687603,23.912280708551407,7.511136814951897
29.96092653274536,88.84505033493042,33.73451038300991,23.91267517209053,7.3990312069654465
29.42648148536682,88.70562195777893,33.73285195708275,23.91142980456352,6.203965939581394
28.431892156600952,88.78537797927856,33.73310226619243,23.911679722070694,6.229683630168438
27.397870779037476,88.88784980773926,33.73359326064587,23.91203151345253,6.046416334807873
32.182851791381836,88.7250804901123,33.73277894198895,23.91131596803665,6.837641507387161
30.931716918945312,88.78467774391174,33.7330834531784,23.9116224193573,6.920817479491234
29.69148015975952,88.87865948677063,33.7336103194952,23.912000728845594,6.749125257134438
32.42397880554199,88.99804997444153,33.732874208688735,23.91137320280075,6.653984621167183
31.11641502380371,88.98069715499878,33.73318346202373,23.91169721007347,6.642147362232208
29.86132836341858,89.01974368095398,33.73368559837341,23.91206388950348,6.428118817508221
26.933221578598022,87.57483196258545,33.73226990163326,23.91104260802269,6.090430714190006
26.208486318588257,87.82509207725525,33.732486833333965,23.911243780851365,6.107822492718697
25.484941959381104,88.0956654548645,33.73300016522408,23.911609966754913,5.878436960279942
28.61531352996826,87.8693642616272,33.73255230605602,23.911223603487013,6.387607403099537
27.64488911628723,88.08685636520386,33.732825462222095,23.91147819519043,6.3755418211221695
26.6529700756073,88.31929087638855,33.73336480081081,23.911866275072096,6.098825693130493
29.34643006324768,87.66114115715027,33.73303257167339,23.91158633470535,6.738912746310234
28.2384512424469,87.896968126297,33.73331636548042,23.911846709251403,6.754193291068077
27.116584539413452,88.15479922294617,33.73386957108974,23.912242020368573,6.459503345191479
24.231664896011353,86.1151237487793,33.734495019316675,23.912816656827925,6.174450911581516
23.54353642463684,86.34307146072388,33.73467929780483,23.912964228391647,6.155747197568417
22.97196364402771,86.61934399604797,33.73513887822628,23.913280979394912,5.8896003141999245
22.234232187271118,85.64816331863403,33.736900520920756,23.914695061445236,5.788989312946796
21.745400190353394,85.86526417732239,33.7370903301239,23.91482301712036,5.681812934577465
21.387566089630127,86.11640191078186,33.737490435242655,23.915087089538574,5.369598440825939
21.977156162261963,86.01653146743774,33.74025681734085,23.917194640636442,5.175295531749725
21.43946146965027,86.27573227882385,33.74042852699757,23.91729591369629,5.0147726982831955
21.00429391860962,86.56580209732056,33.74075383603573,23.91749883532524,4.672249913215637
19.891050219535828,85.7170295715332,33.743196990489956,23.919321389198302,3.666537035256624
19.735105991363525,86.00142812728882,33.7432881051302,23.919371403455735,3.4603948555886745
19.608907461166382,86.30509638786316,33.743472651839255,23.91947613120079,3.2369981929659843
18.969118356704712,84.93574464321136,33.743215401172634,23.919340282678604,3.201073858886957
18.991257309913635,85.21050691604614,33.74324772179126,23.919349184036253,2.981771755963564
19.021469116210938,85.48618578910828,33.743358877897265,23.91940326094627,2.800602786242962
20.050720930099487,84.64544987678528,33.74378881990909,23.919718034267426,3.3622803203761578
19.760494589805603,84.92661654949188,33.74375119388103,23.919678004980085,3.1115482598543167
19.498144149780273,85.19888758659363,33.74378667414188,23.919683712720868,2.864296365529299
21.14479398727417,85.071453332901,33.74544589936733,23.920855741500855,3.516174241900444
20.543293118476868,85.36958336830139,33.745352885723115,23.920777485370635,3.2974300384521484
19.975500464439392,85.66895937919617,33.74530798017979,23.920729477405548,3.004279848188162
22.625685691833496,85.00909805297852,33.74741944730282,23.922174665927887,4.2766857743263245
21.73367953300476,85.32655143737793,33.74744700431824,23.922177444696427,4.1662920862436295
20.834226369857788,85.63762402534485,33.74749406635761,23.92219153881073,3.800048850476742
22.70688509941101,84.78271460533142,33.74723037302494,23.92205542564392,4.624747321009636
21.790879726409912,85.09926390647888,33.747259158492085,23.92205428123474,4.537201024591923
20.862982034683228,85.39886808395386,33.74732884228229,23.922077569961548,4.183120600879192
22.91800594329834,84.75844311714172,33.74691651165485,23.92184438586235,4.819851875305176
21.93156933784485,85.07011222839355,33.74694533467293,23.92184056639671,4.730539344251156
20.94646966457367,85.3620445728302,33.74702564537525,23.92186858654022,4.368849493563175
22.914145946502686,85.10061860084534,33.74788919329643,23.922500779628752,4.941451832652092
21.801018476486206,85.41133642196655,33.747939592003824,23.922512102127072,4.860235549509525
20.73073184490204,85.70902872085571,33.74802581965923,23.922544875144958,4.473841212689877
23.666314840316772,85.40456509590149,33.747483042478564,23.922211154699326,4.950532115995884
22.551072597503662,85.71536803245544,33.74751803457737,23.922217112779617,4.890618607401848
21.444127321243286,86.02535915374756,33.74761481404305,23.922258139848708,4.526850044727325
26.765568017959595,86.2217025756836,33.74644674420357,23.921465357542036,5.476050958037376
25.61377263069153,86.55872678756714,33.74650441706181,23.921494632959366,5.58253163844347
24.394495248794556,86.90951824188232,33.746680552363394,23.921586689949034,5.327340237796307
24.909518718719482,86.31499981880188,33.74492784142494,23.92044007062912,5.616413302719593
23.819933891296387,86.63446521759033,33.74498002111912,23.920459911823272,5.616577252745628
22.758155822753906,86.98336052894592,33.74517392873764,23.92056482195854,5.283229969441891
22.954586505889893,85.62196564674377,33.744664432406424,23.920281559228897,5.744355343282223
21.97988486289978,85.89297032356262,33.744749581813814,23.920316714048383,5.632415026426315
21.13264298439026,86.18935084342957,33.74496534407139,23.92043761730194,5.219495989382267
23.023050785064697,85.57693457603455,33.744921484589575,23.9204543364048,5.768050983548164
21.958006381988525,85.84470129013062,33.74502380013466,23.920501600503922,5.607734680175781
21.035308599472046,86.13382768630981,33.74524345695972,23.920626426935193,5.144875928759575
26.729492902755737,86.48920392990112,33.74475528419018,23.920295438766477,6.186760239303112
25.439486265182495,86.80185437202454,33.74485589921474,23.92035136461258,6.255565606057644
24.154499530792236,87.14448547363281,33.74510214745998,23.920490911006926,5.920356199145317
29.7563693523407,87.43431639671326,33.744714997410775,23.920221688747404,6.804486721754074
28.4663507938385,87.75289344787598,33.744846742153165,23.920308384895325,7.091302037239075
